% ./projectseries.x -T0 0 -T1 400 -bd basis1/ -Nb 4 -d data/u1 -ul u1 -o u1basis1.asc 
0.73079112 -2.434079e-15 5.2011835e-16 6.5863499e-16 
0.67016262 0.025296251 0.0087162206 0.049820356 
0.61407277 0.12154363 0.035654206 0.034180581 
0.53824804 0.21932187 0.019088565 -0.028593522 
0.46271204 0.31759785 0.02038235 -0.044456661 
0.41858354 0.32463964 0.057213662 -0.039331468 
0.40671763 0.30519087 0.076678387 -0.035401076 
0.37328746 0.32044913 0.077853076 -0.0055613964 
0.33229128 0.30692912 0.088427646 -0.0045981744 
0.30898094 0.33860781 0.058249939 -0.014866654 
0.28381141 0.43858304 6.0442161e-16 -6.2965274e-16 
0.24710004 0.31587973 0.051564533 0.015225431 
0.22020156 0.2205327 0.10115871 0.00052869076 
0.2005645 0.19623477 0.1103373 0.0012181079 
0.17721415 0.19363724 0.11941532 0.029557882 
0.15100881 0.20557727 0.12633702 0.065771347 
0.12703227 0.21029849 0.14907683 0.081040909 
0.10727963 0.18493359 0.17635352 0.08401982 
0.088617278 0.1542644 0.21848539 0.065574083 
0.072682038 0.13451005 0.2771581 0.031888239 
0.058917985 0.12889398 0.33075603 6.7655991e-17 
0.048148349 0.12535003 0.27499741 0.057728328 
0.038766822 0.11640383 0.23343859 0.10915531 
0.030841271 0.11070056 0.21748198 0.14505625 
0.022731875 0.11174972 0.21639835 0.17058165 
0.013441073 0.11701149 0.22064258 0.19144204 
0.0043107599 0.11977063 0.22816374 0.21376527 
-0.0035846917 0.11949994 0.23806543 0.23879599 
-0.01177473 0.12074889 0.24434041 0.26683391 
-0.020489417 0.12282828 0.24225746 0.29687496 
-0.02789209 0.12402627 0.23421522 0.31407277 
-0.033736384 0.12487622 0.2263629 0.30343709 
-0.039304642 0.12691222 0.21867018 0.28028367 
-0.044575163 0.12778797 0.21042792 0.25982466 
-0.048065451 0.12632156 0.20213708 0.24483645 
-0.049935581 0.12375852 0.19396649 0.23369561 
-0.051034161 0.12177696 0.18598253 0.22371584 
-0.051014119 0.12087979 0.1778688 0.21282369 
-0.048540741 0.12032553 0.17144088 0.19995058 
-0.042913715 0.11889392 0.16796836 0.18694409 
-0.035441427 0.11714256 0.16586863 0.1776012 
-0.028600029 0.11689678 0.16467993 0.17374896 
-0.023845287 0.1180712 0.16592388 0.17525708 
-0.02157134 0.11945158 0.16994709 0.18057716 
-0.021721 0.12076201 0.17552511 0.18676477 
-0.023630997 0.12110961 0.18097205 0.1919713 
-0.026220498 0.12000086 0.18451878 0.19540802 
-0.028420718 0.11808311 0.18551966 0.19691786 
-0.029754714 0.11654168 0.18450579 0.1969797 
-0.030684478 0.11626589 0.18261855 0.19602836 
-0.031983622 0.11741679 0.18111224 0.19439789 
-0.033999095 0.11948103 0.18066679 0.19264579 
-0.036622083 0.12168303 0.18106545 0.1915501 
-0.039429713 0.12334968 0.18161654 0.19186366 
-0.041890488 0.12429061 0.18182957 0.19378068 
-0.043568611 0.1246016 0.18164815 0.1968075 
-0.044196519 0.12441664 0.18109952 0.20002341 
-0.043698471 0.12407592 0.17999741 0.20248828 
-0.042164055 0.12389522 0.17813721 0.2036496 
-0.039796946 0.12386034 0.17560839 0.20338749 
-0.03689721 0.12372619 0.17284674 0.20178485 
-0.033822911 0.12327323 0.17039883 0.19902451 
-0.030899631 0.12241642 0.1686416 0.19543076 
-0.028347699 0.12120499 0.16769486 0.19135794 
-0.026263323 0.1198241 0.167469 0.18709579 
-0.02464729 0.11857548 0.16768519 0.18297757 
-0.02347894 0.11777464 0.16792029 0.17938324 
-0.022759243 0.11757831 0.16777545 0.1765934 
-0.022448877 0.11783624 0.16704814 0.17470298 
-0.022394299 0.11820825 0.16572302 0.1735396 
-0.022369001 0.11843731 0.16388224 0.17261945 
-0.022165607 0.11847629 0.16167652 0.17133644 
-0.021616218 0.11843959 0.15931064 0.16933551 
-0.020585914 0.11846622 0.15706532 0.16666704 
-0.019034513 0.11859451 0.15523608 0.16364519 
-0.017104245 0.11872389 0.15395425 0.16072017 
-0.01510874 0.11861615 0.15322196 0.15843399 
-0.013379766 0.11795739 0.15318115 0.15721038 
-0.012103168 0.11658991 0.15419236 0.15707844 
-0.011320605 0.11479931 0.15654966 0.15769178 
-0.011062945 0.11324897 0.16014444 0.15866466 
-0.011403855 0.1124708 0.16446804 0.15994273 
-0.012383749 0.11242209 0.16893904 0.16186371 
-0.013949905 0.11261751 0.17325513 0.16475448 
-0.0159857 0.11269885 0.17768628 0.16828935 
-0.018389408 0.11266522 0.18275639 0.17156652 
-0.021129949 0.11269758 0.18842539 0.17406105 
-0.024203844 0.11301635 0.19410467 0.175882 
-0.02752909 0.11380209 0.19922887 0.17731146 
-0.030905453 0.11509547 0.20349629 0.17861596 
-0.034079531 0.11675847 0.20686332 0.17997903 
-0.036843694 0.11850534 0.20950009 0.18141695 
-0.03910758 0.11998208 0.21167218 0.18281188 
-0.040911357 0.12087111 0.2135889 0.1840251 
-0.042369577 0.12097526 0.21532261 0.18496831 
-0.043584908 0.1202622 0.2168202 0.18559309 
-0.044600049 0.11887504 0.21794209 0.18585546 
-0.045418686 0.11709293 0.2184803 0.1857091 
-0.046059077 0.11521931 0.21818845 0.18510939 
-0.046579362 0.11344963 0.21685033 0.18401736 
-0.047054768 0.11180754 0.21435731 0.18242816 
-0.047545023 0.1101801 0.21076659 0.18040857 
-0.048100279 0.10843664 0.20630891 0.17810139 
-0.048794423 0.10654248 0.20132919 0.17567594 
-0.049720588 0.10456164 0.19620819 0.17322289 
-0.05092378 0.10258281 0.191293 0.1706793 
-0.052338195 0.10066883 0.18683159 0.16791038 
-0.053806428 0.0988512 0.18292081 0.16492025 
-0.05515901 0.097162637 0.1794449 0.16198791 
-0.056262945 0.095668971 0.17613328 0.15946278 
-0.056983735 0.094401861 0.17283914 0.15738271 
-0.057103549 0.093366973 0.16966602 0.15540052 
-0.05628555 0.092766046 0.16678028 0.15296779 
-0.054145671 0.092745766 0.16413955 0.14972458 
-0.050460104 0.093276182 0.1612442 0.1458921 
-0.045382614 0.09452143 0.15750897 0.14201309 
-0.039448231 0.096699637 0.15309074 0.13821928 
-0.033346601 0.099659965 0.14860611 0.13440527 
-0.027535557 0.10301051 0.14470059 0.13057186 
-0.021999516 0.10636703 0.14199329 0.12669521 
-0.01648285 0.10914821 0.14058958 0.12286015 
-0.010937545 0.11076675 0.14005185 0.11906963 
-0.0057491863 0.1107666 0.13972185 0.11538049 
-0.0016379536 0.10889317 0.13889557 0.11220527 
0.00068693659 0.10511624 0.13709543 0.1100455 
0.00091575581 0.099524959 0.13469742 0.10900845 
-0.00094505395 0.092789636 0.13264074 0.10896395 
-0.0049018115 0.086535388 0.1315848 0.10973105 
-0.01089299 0.08188541 0.13243679 0.11114883 
-0.018395612 0.078901845 0.13551701 0.11318213 
-0.02627422 0.076969812 0.13942924 0.1160674 
-0.033313857 0.075635928 0.14263963 0.1197031 
-0.038687021 0.075568348 0.14460806 0.12295544 
-0.042012637 0.077932345 0.14555398 0.12440434 
-0.043466015 0.082970355 0.1465716 0.12325732 
-0.043566169 0.088893423 0.14844093 0.11959382 
-0.042606686 0.093254952 0.14979163 0.11469506 
-0.040441626 0.094776073 0.14894987 0.10992177 
-0.036953856 0.093608366 0.14660016 0.10540853 
-0.032896095 0.090597595 0.14336917 0.10157922 
-0.029950709 0.086621365 0.13863171 0.09945667 
-0.029443741 0.082087734 0.13347249 0.099201775 
-0.031297097 0.076884539 0.12987519 0.099984911 
-0.034346548 0.072336457 0.12828473 0.10014475 
-0.036844525 0.069643206 0.12861242 0.098414602 
-0.03745692 0.068323308 0.13043046 0.094780373 
-0.036156863 0.067758637 0.13281646 0.090907719 
-0.033385427 0.068075928 0.134863 0.088440516 
-0.029499548 0.069301591 0.13613735 0.087428588 
-0.025289357 0.071062527 0.13653796 0.087263066 
-0.021593473 0.072438233 0.13606118 0.087597902 
-0.018778724 0.072284049 0.13502267 0.088049652 
-0.016865898 0.070444263 0.13345313 0.08823585 
-0.01571185 0.067681073 0.1311449 0.087959565 
-0.015117551 0.064897171 0.12840899 0.087129837 
-0.014950094 0.062692276 0.12608477 0.085832877 
-0.015145146 0.06127366 0.12457584 0.084455401 
-0.015584236 0.060489089 0.12343214 0.0835306 
-0.016042517 0.059929316 0.12209112 0.083416208 
-0.016362906 0.059211601 0.12052463 0.084111493 
-0.016632801 0.05819153 0.11906912 0.085312342 
-0.017094715 0.056957758 0.11795922 0.08657221 
-0.01789737 0.055683171 0.11714196 0.087509296 
-0.018983502 0.054502833 0.11639415 0.087913871 
-0.020170262 0.053500431 0.11551184 0.087702992 
-0.021262784 0.052718601 0.11439885 0.086862457 
-0.022097277 0.052140965 0.11303201 0.085454076 
-0.022550691 0.051692407 0.11140975 0.083627196 
-0.022566024 0.051271129 0.10953551 0.08159781 
-0.022181633 0.050783895 0.10741152 0.079599912 
-0.021537053 0.050170502 0.10504182 0.077820542 
-0.020840654 0.04941181 0.10242803 0.07635768 
-0.020304632 0.048521487 0.099575248 0.075208511 
-0.02007734 0.047531897 0.096522484 0.074279134 
-0.020205222 0.046485397 0.09335576 0.073423131 
-0.020628293 0.045427881 0.090184234 0.072496422 
-0.021198859 0.044405085 0.087104617 0.071397039 
-0.02172084 0.043460583 0.084183617 0.070079408 
-0.02200354 0.042630602 0.081462329 0.068552918 
-0.021912273 0.041937484 0.078969073 0.066870525 
-0.02139887 0.041383325 0.076725885 0.0651144 
-0.020505191 0.040943799 0.074750032 0.063376133 
-0.019343833 0.040569216 0.073053244 0.061732919 
-0.018066265 0.040195069 0.071635954 0.060231843 
-0.0168284 0.039759569 0.070476462 0.058884686 
-0.015761102 0.03921746 0.069522295 0.05767612 
-0.014950524 0.038548804 0.068689891 0.056580736 
-0.014430347 0.037760518 0.067878629 0.055577208 
-0.014185005 0.036878856 0.066996268 0.054651965 
-0.014160887 0.035939383 0.065980236 0.053794125 
-0.014281808 0.034979755 0.064804242 0.052989159 
-0.014465432 0.034034187 0.063475053 0.052214975 
-0.014638275 0.033129681 0.062023851 0.051442694 
-0.014746865 0.032284656 0.060495354 0.050642164 
-0.014763062 0.031508898 0.058938571 0.049788558 
-0.014682953 0.030804283 0.057399847 0.048867389 
-0.01452065 0.030165474 0.055917942 0.047876856 
-0.014299607 0.029580774 0.054520829 0.046827245 
-0.014044386 0.029034158 0.053223939 0.04573803 
-0.01377491 0.028508434 0.052030233 0.044633445 
-0.013504009 0.027988759 0.050931953 0.043537844 
-0.013237779 0.027465469 0.049913609 0.042472012 
-0.012977625 0.026935286 0.048955743 0.041450647 
-0.012722721 0.026400652 0.048038671 0.040481063 
-0.012472017 0.02586772 0.047145383 0.039563255 
-0.012225381 0.025343874 0.046263208 0.038691275 
-0.011983854 0.024835577 0.045384242 0.037855545 
-0.011749238 0.024347012 0.044504881 0.037045506 
-0.011523353 0.023879636 0.043624845 0.036251968 
-0.011307301 0.02343248 0.042746015 0.035468629 
-0.011101013 0.0230029 0.041871326 0.034692553 
-0.010903227 0.022587497 0.041003875 0.033923726 
-0.010711843 0.022182939 0.04014631 0.033164039 
-0.010524514 0.021786549 0.039300504 0.03241612 
-0.01033924 0.02139658 0.038467478 0.031682341 
-0.0101548 0.021012206 0.037647504 0.030964217 
-0.0099709098 0.02063332 0.036840302 0.030262215 
-0.0097881079 0.02026024 0.036045278 0.029575907 
-0.0096074409 0.019893431 0.035261717 0.028904315 
-0.0094300724 0.019533297 0.034488939 0.028246297 
-0.0092569357 0.019180076 0.033726381 0.027600863 
-0.0090885175 0.018833812 0.032973641 0.026967352 
-0.008924805 0.018494385 0.032230475 0.026345465 
-0.0087653795 0.018161568 0.031496784 0.025735188 
-0.0086095996 0.017835072 0.030772589 0.025136663 
-0.0084568053 0.017514585 0.030057992 0.024550052 
-0.0083064829 0.017199801 0.029353143 0.023975442 
-0.0081583532 0.016890433 0.028658201 0.02341279 
-0.0080123768 0.016586225 0.027973294 0.022861927 
-0.0078686917 0.016286961 0.027298499 0.022322588 
-0.0077275169 0.015992474 0.026633828 0.021794458 
-0.0075890566 0.015702642 0.025979237 0.021277222 
-0.0074534304 0.015417389 0.02533464 0.020770592 
-0.0073206443 0.015136664 0.024699944 0.020274322 
-0.0071905998 0.014860429 0.024075072 0.019788213 
-0.0070631306 0.014588643 0.023459977 0.019312097 
-0.0069380502 0.01432125 0.022854651 0.018845823 
-0.0068151927 0.014058176 0.022259118 0.018389245 
-0.00669444 0.013799332 0.021673413 0.01794221 
-0.0065757276 0.013544623 0.021097569 0.01750456 
-0.0064590356 0.013293958 0.020531601 0.017076128 
-0.006344369 0.013047255 0.019975497 0.016656744 
-0.0062317366 0.012804449 0.019429221 0.016246239 
-0.0061211349 0.012565488 0.018892718 0.015844449 
-0.0060125398 0.012330331 0.018365927 0.015451221 
-0.0059059066 0.012098941 0.017848785 0.015066404 
-0.0058011769 0.011871278 0.017341237 0.014689857 
-0.0056982878 0.011647302 0.016843235 0.014321442 
-0.00559718 0.011426965 0.016354737 0.013961026 
-0.0054978037 0.011210216 0.015875699 0.013608474 
-0.0054001201 0.010997003 0.015406074 0.013263654 
-0.0053040998 0.010787275 0.01494581 0.012926435 
-0.0052097193 0.010580985 0.014494843 0.012596686 
-0.0051169567 0.010378087 0.014053102 0.012274277 
-0.0050257889 0.010178539 0.013620511 0.011959082 
-0.0049361896 0.0099823029 0.013196988 0.011650976 
-0.0048481296 0.009789339 0.012782451 0.011349835 
-0.0047615778 0.0095996085 0.012376818 0.011055538 
-0.0046765029 0.0094130716 0.011980003 0.010767968 
-0.0045928749 0.0092296879 0.011591922 0.010487005 
-0.0045106661 0.0090494167 0.011212488 0.010212533 
-0.0044298509 0.0088722174 0.010841609 0.0099444379 
-0.0043504059 0.0086980497 0.010479191 0.0096826043 
-0.0042723093 0.0085268742 0.010125138 0.0094269191 
-0.0041955396 0.0083586524 0.0097793497 0.0091772703 
-0.0041200755 0.0081933462 0.0094417231 0.0089335469 
-0.0040458958 0.008030918 0.0091121542 0.0086956392 
-0.0039729788 0.0078713305 0.0087905372 0.0084634388 
-0.0039013032 0.0077145466 0.0084767651 0.0082368385 
-0.0038308479 0.007560529 0.0081707295 0.0080157323 
-0.0037615924 0.0074092406 0.0078723211 0.0078000153 
-0.0036935167 0.0072606445 0.0075814291 0.0075895838 
-0.0036266017 0.007114704 0.0072979417 0.0073843349 
-0.0035608288 0.0069713827 0.0070217457 0.0071841671 
-0.0034961798 0.0068306443 0.006752727 0.0069889798 
-0.003432637 0.0066924531 0.0064907707 0.0067986735 
-0.0033701827 0.0065567734 0.0062357611 0.0066131501 
-0.0033087996 0.0064235699 0.0059875822 0.0064323123 
-0.0032484705 0.0062928075 0.0057461176 0.0062560643 
-0.0031891787 0.0061644512 0.0055112505 0.0060843113 
-0.0031309074 0.0060384663 0.0052828643 0.0059169596 
-0.0030736404 0.0059148182 0.0050608421 0.005753917 
-0.0030173616 0.0057934726 0.004845067 0.005595092 
-0.0029620553 0.0056743956 0.0046354224 0.0054403947 
-0.0029077062 0.0055575532 0.0044317918 0.0052897361 
-0.0028542989 0.0054429119 0.0042340588 0.0051430286 
-0.0028018186 0.0053304385 0.0040421077 0.0050001858 
-0.0027502505 0.0052200997 0.0038558232 0.0048611223 
-0.0026995801 0.0051118629 0.0036750905 0.0047257541 
-0.002649793 0.0050056956 0.0034997955 0.0045939985 
-0.0026008752 0.0049015653 0.0033298247 0.0044657738 
-0.0025528126 0.0047994401 0.0031650656 0.0043409999 
-0.0025055917 0.0046992883 0.0030054064 0.0042195976 
-0.0024591989 0.0046010783 0.0028507363 0.004101489 
-0.0024136209 0.0045047789 0.0027009454 0.0039865977 
-0.0023688446 0.0044103593 0.0025559247 0.0038748482 
-0.0023248571 0.0043177888 0.0024155667 0.0037661664 
-0.0022816457 0.004227037 0.0022797644 0.0036604796 
-0.0022391977 0.0041380739 0.0021484126 0.003557716 
-0.0021975009 0.0040508697 0.0020214068 0.0034578054 
-0.002156543 0.0039653951 0.0018986441 0.0033606786 
-0.002116312 0.0038816207 0.0017800227 0.0032662678 
-0.002076796 0.0037995179 0.0016654422 0.0031745062 
-0.0020379834 0.003719058 0.0015548035 0.0030853284 
-0.0019998626 0.0036402128 0.0014480088 0.0029986703 
-0.0019624222 0.0035629545 0.0013449619 0.0029144689 
-0.0019256512 0.0034872553 0.001245568 0.0028326623 
-0.0018895384 0.0034130882 0.0011497335 0.00275319 
-0.001854073 0.003340426 0.0010573664 0.0026759926 
-0.0018192443 0.0032692422 0.00096837629 0.0026010119 
-0.0017850416 0.0031995104 0.0008826741 0.0025281907 
-0.0017514546 0.0031312048 0.00080017231 0.0024574733 
-0.0017184731 0.0030642995 0.00072078488 0.0023888049 
-0.0016860869 0.0029987694 0.0006444273 0.002322132 
-0.0016542861 0.0029345894 0.00057101656 0.0022574019 
-0.0016230608 0.0028717348 0.00050047118 0.0021945635 
-0.0015924013 0.0028101812 0.0004327112 0.0021335664 
-0.0015622982 0.0027499048 0.00036765817 0.0020743615 
-0.0015327421 0.0026908818 0.00030523517 0.0020169008 
-0.0015037237 0.0026330888 0.00024536677 0.0019611371 
-0.0014752339 0.0025765028 0.00018797907 0.0019070246 
-0.0014472637 0.0025211011 0.00013299966 0.0018545183 
-0.0014198042 0.0024668614 8.0357624e-05 0.0018035742 
-0.0013928469 0.0024137617 2.998354e-05 0.0017541496 
-0.001366383 0.0023617801 -1.8190544e-05 0.0017062025 
-0.0013404043 0.0023108953 -6.4231117e-05 0.0016596919 
-0.0013149022 0.0022610862 -0.00010820321 0.0016145779 
-0.0012898687 0.0022123321 -0.00015017042 0.0015708215 
-0.0012652957 0.0021646126 -0.00019019491 0.0015283846 
-0.0012411752 0.0021179075 -0.00022833744 0.0014872299 
-0.0012174995 0.002072197 -0.00026465735 0.0014473213 
-0.0011942608 0.0020274617 -0.00029921263 0.0014086234 
-0.0011714515 0.0019836823 -0.00033205988 0.0013711015 
-0.0011490643 0.0019408401 -0.00036325436 0.0013347221 
-0.0011270917 0.0018989164 -0.00039285 0.0012994523 
-0.0011055265 0.0018578931 -0.0004208994 0.0012652602 
-0.0010843616 0.0018177521 -0.0004474539 0.0012321144 
-0.00106359 0.0017784758 -0.00047256352 0.0011999847 
-0.0010432049 0.0017400469 -0.00049627705 0.0011688415 
-0.0010231994 0.0017024482 -0.00051864203 0.0011386557 
-0.0010035668 0.0016656631 -0.0005397048 0.0011093994 
-0.00098430069 0.001629675 -0.00055951046 0.0010810451 
-0.00096539447 0.0015944678 -0.00057810297 0.0010535662 
-0.00094684183 0.0015600256 -0.00059552512 0.0010269367 
-0.0009286365 0.0015263326 -0.00061181855 0.0010011313 
-0.00091077235 0.0014933736 -0.00062702378 0.00097612549 
-0.00089324329 0.0014611334 -0.00064118025 0.00095189522 
-0.0008760434 0.0014295973 -0.0006543263 0.00092841722 
-0.00085916679 0.0013987506 -0.00066649923 0.00090566881 
-0.00084260771 0.0013685792 -0.00067773528 0.00088362795 
-0.00082636049 0.0013390689 -0.00068806971 0.00086227316 
-0.00081041954 0.0013102061 -0.00069753673 0.00084158359 
-0.00079477939 0.0012819771 -0.00070616963 0.00082153894 
-0.00077943464 0.0012543687 -0.0007140007 0.00080211948 
-0.00076437998 0.001227368 -0.00072106132 0.00078330603 
-0.0007496102 0.001200962 -0.00072738193 0.00076507993 
-0.00073512015 0.0011751384 -0.0007329921 0.00074742307 
-0.00072090481 0.0011498847 -0.00073792049 0.00073031784 
-0.00070695919 0.001125189 -0.00074219494 0.00071374711 
-0.00069327843 0.0011010393 -0.00074584242 0.00069769426 
-0.00067985772 0.001077424 -0.00074888909 0.00068214314 
-0.00066669236 0.0010543319 -0.00075136032 0.00066707805 
-0.00065377769 0.0010317516 -0.00075328068 0.00065248375 
-0.00064110916 0.0010096723 -0.00075467399 0.00063834545 
-0.0006286823 0.00098808313 -0.00075556332 0.00062464878 
-0.00061649268 0.00096697368 -0.000755971 0.00061137978 
-0.00060453598 0.00094633358 -0.00075591868 0.00059852491 
-0.00059280794 0.00092615269 -0.00075542728 0.00058607102 
-0.00058130437 0.00090642112 -0.00075451707 0.00057400534 
-0.00057002116 0.00088712912 -0.00075320765 0.0005623155 
-0.00055895426 0.00086826717 -0.00075151799 0.00055098948 
-0.0005480997 0.00084982593 -0.00074946643 0.00054001562 
-0.00053745357 0.00083179623 -0.00074707068 0.00052938261 
-0.00052701203 0.00081416913 -0.00074434789 0.00051907947 
-0.00051677131 0.00079693582 -0.0007413146 0.00050909556 
-0.0005067277 0.00078008769 -0.00073798682 0.00049942056 
-0.00049687755 0.00076361631 -0.00073437999 0.00049004446 
-0.00048721728 0.00074751341 -0.00073050902 0.00048095755 
-0.00047774337 0.00073177091 -0.0007263883 0.00047215043 
-0.00046845236 0.00071638086 -0.00072203173 0.00046361396 
-0.00045934086 0.00070133551 -0.00071745269 0.0004553393 
-0.00045040552 0.00068662725 -0.00071266412 0.00044731789 
-0.00044164307 0.00067224863 -0.00070767848 0.00043954141 
-0.00043305028 0.00065819235 -0.00070250777 0.00043200181 
-0.00042462398 0.00064445128 -0.00069716355 0.00042469129 
-0.00041636107 0.00063101842 -0.00069165699 0.00041760229 
-0.00040825848 0.00061788692 -0.00068599881 0.00041072749 
-0.00040031321 0.00060505009 -0.00068019934 0.00040405979 
-0.00039252232 0.00059250135 -0.00067426853 0.00039759233 
-0.0003848829 0.00058023428 -0.00066821593 0.00039131844 
-0.00037739211 0.00056824259 -0.00066205076 0.00038523168 
-0.00037004716 0.00055652014 -0.00065578185 0.0003793258 
-0.00036284528 0.00054506089 -0.00064941771 0.00037359478 
-0.0003557838 0.00053385894 -0.00064296648 0.00036803274 
-0.00034886006 0.00052290853 -0.00063643603 0.00036263404 
-0.00034207145 0.00051220401 -0.00062983387 0.00035739318 
-0.00033541542 0.00050173985 -0.00062316722 0.00035230485 
-0.00032888947 0.00049151064 -0.00061644301 0.00034736392 
-0.00032249111 0.00048151109 -0.00060966788 0.00034256542 
-0.00031621794 0.00047173603 -0.00060284819 0.00033790454 
-0.00031006758 0.00046218039 -0.00059599005 0.00033337662 
