% ./projectseries.x -T0 0 -T1 400 -bd UBbasis/ -Nb 4 -d data/u1 -ul u1 -o u1UBbasis.asc 
-0.08341413 0.0054740701 0.0033400447 -0.013802231 
-0.031675626 0.012991552 0.004403506 -0.0098674286 
0.017697745 0.016928304 0.0041050142 -0.016945761 
0.013849227 0.016404335 -0.00089455741 -0.029048657 
0.047433157 0.017824799 -0.0098226144 -0.0088391351 
0.085004584 0.013965841 -0.014854828 0.012702429 
0.084409517 -0.0054206253 -0.023550761 0.023052813 
0.10729221 -0.023348298 -0.0086534472 0.035327565 
0.13038734 -0.027236158 -9.2591981e-05 0.0070884933 
0.12062953 -0.022495938 -0.0076044606 -0.014819391 
0.12893849 -0.014886235 -0.015149855 -0.0021927419 
0.15936456 -0.012343952 -0.0021001719 0.020151679 
0.15629414 -0.020811221 -0.0021632814 0.020298703 
0.14688886 -0.029643317 0.00043575053 0.0022064054 
0.15828925 -0.040095469 0.0045071526 -0.012152925 
0.17895347 -0.043734375 0.0086502887 -0.024141062 
0.19193193 -0.039110864 0.0071333652 -0.018874741 
0.1964773 -0.035740819 0.00071191644 -0.0070358892 
0.20102075 -0.029886181 0.0055430274 0.0067821979 
0.20562592 -0.021480534 0.016351926 0.010617599 
0.21021565 -0.017991703 0.020035508 0.011472755 
0.21549224 -0.021939067 0.023875964 0.01068192 
0.22562439 -0.030520998 0.02707602 0.00094776635 
0.23976395 -0.039963382 0.02679448 -0.010203721 
0.25623164 -0.049015792 0.022274322 -0.01586961 
0.27295539 -0.057331851 0.014791785 -0.019542479 
0.2878416 -0.063825246 0.0059135495 -0.021068542 
0.29959494 -0.067397954 -0.0013015959 -0.018752289 
0.30903215 -0.069759669 -0.0048948674 -0.01273377 
0.31730506 -0.073315281 -0.0049748212 -0.0080341414 
0.32355261 -0.078328488 -0.0029157744 -0.0078193623 
0.32649311 -0.083990601 0.00096686948 -0.010239286 
0.32618155 -0.08975936 0.0037448231 -0.012549538 
0.32386467 -0.094772343 0.0025487525 -0.012547336 
0.32022861 -0.097971072 -0.0033298838 -0.009427781 
0.31568084 -0.099574044 -0.011675351 -0.0046972679 
0.31115852 -0.10081201 -0.020148045 -0.00075289717 
0.30755308 -0.10286921 -0.027817731 0.0017705703 
0.3051933 -0.10613166 -0.033430362 0.0036992565 
0.30396878 -0.11051766 -0.034977584 0.0051389803 
0.30361543 -0.11587739 -0.031926153 0.0069570856 
0.30410529 -0.12168217 -0.026523008 0.0099541236 
0.30565346 -0.12715641 -0.02181948 0.013075235 
0.30822869 -0.13180503 -0.019441891 0.015352057 
0.31150864 -0.13552748 -0.01926369 0.01681271 
0.31491971 -0.13850285 -0.019781235 0.017586343 
0.31767446 -0.1410103 -0.019585654 0.017726982 
0.3192782 -0.14320082 -0.018464784 0.017216892 
0.31991652 -0.14499381 -0.017088222 0.016296587 
0.32018005 -0.14609415 -0.016511264 0.016073606 
0.32057536 -0.14620852 -0.017604243 0.017858871 
0.32133227 -0.14544934 -0.020370391 0.021439924 
0.32238649 -0.14430747 -0.02420047 0.02539356 
0.32350542 -0.14326605 -0.028441325 0.028768956 
0.32450168 -0.14254319 -0.032552799 0.031366764 
0.32527221 -0.14203423 -0.036202977 0.033293242 
0.32574815 -0.14149869 -0.039173974 0.034786175 
0.3258861 -0.14073189 -0.041307549 0.035981876 
0.32566994 -0.13958924 -0.042615758 0.036756451 
0.32510272 -0.13796325 -0.043320004 0.036947793 
0.32422039 -0.1357494 -0.043768612 0.036427868 
0.32307419 -0.13289944 -0.044211495 0.035031254 
0.32166284 -0.1295544 -0.044543169 0.032782365 
0.31993942 -0.12603272 -0.044391589 0.029983736 
0.31789355 -0.12265715 -0.043509393 0.027037531 
0.31557874 -0.11964066 -0.041936927 0.024360332 
0.31306026 -0.11707191 -0.039846558 0.022302578 
0.31036033 -0.11492443 -0.037461701 0.021040632 
0.30746845 -0.11310342 -0.035185966 0.020450921 
0.30438582 -0.11150923 -0.033502585 0.020004781 
0.30113208 -0.11008698 -0.032551961 0.01900355 
0.29774507 -0.10884822 -0.032024511 0.016963382 
0.29430622 -0.10786476 -0.031511685 0.013785382 
0.29092269 -0.10727675 -0.030807524 0.0098311339 
0.28767055 -0.10728979 -0.029856491 0.0057271933 
0.28457054 -0.10811392 -0.028477661 0.0018827246 
0.28162799 -0.10986455 -0.026326992 -0.0016602823 
0.27891104 -0.11250286 -0.023200617 -0.0048700936 
0.27659617 -0.11584907 -0.019279402 -0.0074758143 
0.27492935 -0.11960638 -0.015053919 -0.0091565543 
0.27413472 -0.12336642 -0.011052467 -0.0097987294 
0.27434002 -0.12668207 -0.0076337514 -0.0094744821 
0.27555578 -0.1292379 -0.0049877535 -0.0082427189 
0.2776932 -0.13097646 -0.0032358868 -0.0060443669 
0.28057705 -0.1320371 -0.002448475 -0.0028611197 
0.28396759 -0.13259752 -0.0026395932 0.0010458212 
0.28761558 -0.13279595 -0.003727907 0.005116149 
0.29131474 -0.13274657 -0.0054387506 0.0087238352 
0.29491672 -0.13253212 -0.0073165416 0.01141959 
0.29831701 -0.13216693 -0.0088738714 0.013038842 
0.30143477 -0.13160094 -0.0097659126 0.013733575 
0.3041926 -0.13075281 -0.0099091611 0.013956646 
0.30650244 -0.12951914 -0.009500431 0.01430935 
0.30827339 -0.12776234 -0.0089404005 0.015229948 
0.30944345 -0.12532976 -0.0087049667 0.016723875 
0.31001206 -0.12212207 -0.0092032731 0.018375066 
0.31003971 -0.11815598 -0.010671258 0.01963608 
0.30960679 -0.11357258 -0.013130075 0.02015623 
0.30876047 -0.10860956 -0.016368316 0.019912755 
0.30748482 -0.10356095 -0.019953118 0.019143274 
0.30572082 -0.09872805 -0.023333299 0.018181462 
0.30343967 -0.094375434 -0.026013329 0.017267531 
0.30072186 -0.090701364 -0.027691982 0.01644042 
0.29776044 -0.087830332 -0.028251151 0.015634637 
0.29476752 -0.085828134 -0.027610995 0.01491199 
0.29187353 -0.084711681 -0.025662342 0.014522984 
0.2891108 -0.084452129 -0.022358064 0.014701957 
0.28646676 -0.084977859 -0.017814208 0.015431708 
0.28392405 -0.086158248 -0.012289021 0.016369966 
0.2814436 -0.087779697 -0.0060678848 0.016926886 
0.27892283 -0.089563964 0.00059032054 0.016268684 
0.27619198 -0.091239167 0.0073913273 0.013213973 
0.27311095 -0.09255373 0.014021446 0.0067892589 
0.26972692 -0.093138902 0.020375982 -0.0026263841 
0.2663116 -0.092457804 0.02643013 -0.013408762 
0.2632769 -0.089977436 0.031785912 -0.023819719 
0.26101633 -0.085363766 0.035886422 -0.032653036 
0.25965621 -0.078640287 0.038614114 -0.039468908 
0.25894656 -0.07027615 0.040289167 -0.044384725 
0.25843442 -0.061053914 0.041223286 -0.047309782 
0.25772268 -0.051767804 0.041295566 -0.047715197 
0.25655527 -0.043017669 0.039688199 -0.045458567 
0.25478369 -0.035054705 0.035505479 -0.04072669 
0.25239273 -0.027777294 0.028528751 -0.033548358 
0.24951851 -0.020975006 0.01916285 -0.024341802 
0.24638233 -0.014436998 0.0082341368 -0.014092529 
0.24321868 -0.0078994569 -0.002983074 -0.0041778611 
0.24024997 -0.0011830853 -0.012782561 0.0036246615 
0.23770028 0.0056830402 -0.019615997 0.0082632662 
0.23589109 0.012638732 -0.023167652 0.010296009 
0.23520726 0.019814792 -0.024214759 0.010578321 
0.23576914 0.027323711 -0.023738013 0.0092137109 
0.23726722 0.034856389 -0.022929185 0.0071613886 
0.23915216 0.041796711 -0.022810944 0.0064787771 
0.24092462 0.04760025 -0.023449879 0.0085254463 
0.24230543 0.051737154 -0.023916384 0.012766959 
0.24313576 0.053634013 -0.022984821 0.016941968 
0.2431838 0.053275865 -0.020126845 0.018323602 
0.24227086 0.051705635 -0.016376822 0.015555352 
0.24039845 0.050504333 -0.013372263 0.0098522213 
0.23772629 0.050638945 -0.011279997 0.0038547574 
0.23452449 0.052135277 -0.0089154645 -0.00049531237 
0.23103417 0.054575218 -0.0053094454 -0.0025700514 
0.22735149 0.057419669 -0.00054856396 -0.0025034282 
0.22357648 0.060109422 0.0042608733 -0.00061585926 
0.21988288 0.062233854 0.007614377 0.002407027 
0.21639539 0.063514665 0.00861383 0.005547336 
0.21314507 0.063558512 0.0071843293 0.0080848204 
0.21012293 0.061973168 0.0039817743 0.0098343681 
0.20730937 0.058696224 0.0005641389 0.011121626 
0.20469086 0.053996478 -0.0012516975 0.01228857 
0.2022475 0.048312262 -0.00054533305 0.013066589 
0.199906 0.042092248 0.0022546082 0.01291943 
0.19755594 0.035718386 0.0058315707 0.011662621 
0.19514466 0.029529427 0.0087802611 0.0094639902 
0.19274305 0.023790828 0.010275753 0.00667295 
0.1904995 0.018624709 0.010306789 0.0037151974 
0.18851806 0.014032426 0.0094453198 0.00095259759 
0.18676865 0.010003098 0.0083666844 -0.0014334663 
0.18511798 0.0065761013 0.0074914828 -0.0033817255 
0.18343427 0.0037922536 0.0068762443 -0.0048366319 
0.18165757 0.0016389146 0.0062903083 -0.0056974829 
0.17979567 6.8849738e-05 0.0054252801 -0.0058009999 
0.17788142 -0.00094866365 0.0041284704 -0.0049760862 
0.17593874 -0.0014206413 0.0025091714 -0.0031657585 
0.17397516 -0.0013766036 0.00084687619 -0.00052374568 
0.17198962 -0.00090364261 -0.00060299821 0.0025709042 
0.16997964 -0.00012633016 -0.0017525351 0.0055967882 
0.16794231 0.00083856331 -0.0026937369 0.0080520757 
0.16587304 0.0019051557 -0.0035942418 0.0096107262 
0.16376734 0.0030138352 -0.0045645158 0.010187612 
0.16162534 0.0041222472 -0.0055879595 0.0099020257 
0.15945344 0.005203626 -0.0065371319 0.0089803375 
0.15726094 0.0062458175 -0.0072409523 0.007649117 
0.15505434 0.0072456336 -0.0075577443 0.006064473 
0.15283381 0.0082025303 -0.0074231403 0.0042996684 
0.15059299 0.009115766 -0.0068599156 0.0023828338 
0.14832145 0.0099841473 -0.0059550679 0.00035529232 
0.14600884 0.010806602 -0.0048221199 -0.0016850143 
0.14364968 0.011583595 -0.0035685926 -0.003577182 
0.14124678 0.012319191 -0.0022806477 -0.0051272253 
0.13881118 0.01302195 -0.0010248282 -0.0061561813 
0.1363586 0.013703267 0.00014169413 -0.0065441366 
0.13390482 0.014374096 0.0011623574 -0.0062551485 
0.13146206 0.015042192 0.0019799165 -0.0053400901 
0.12903801 0.015711427 0.002543486 -0.0039228281 
0.12663682 0.016383075 0.0028203117 -0.0021777786 
0.12426098 0.017057756 0.0028061603 -0.00030530293 
0.1219128 0.01773668 0.002529318 0.0014922457 
0.11959492 0.018421672 0.0020467862 0.0030332629 
0.11731015 0.019114388 0.0014344577 0.0041773508 
0.11506094 0.019815508 0.0007743978 0.0048410831 
0.11284924 0.020524428 0.00014223821 0.005006108 
0.11067651 0.021239523 -0.00040292318 0.0047173016 
0.10854393 0.021958685 -0.00082429802 0.0040709383 
0.10645245 0.022679858 -0.0011080962 0.0031954142 
0.10440268 0.023401377 -0.0012598641 0.0022286712 
0.10239474 0.024122078 -0.001298305 0.001296832 
0.10042828 0.024841142 -0.0012486561 0.00049774474 
0.098502536 0.025557798 -0.0011372083 -0.00010834931 
0.096616574 0.026271002 -0.00098774853 -0.00050048283 
0.094769486 0.026979257 -0.00081994335 -0.00069191848 
0.092960473 0.027680619 -0.00064914393 -0.00072042765 
0.091188829 0.028372867 -0.00048690406 -0.00063649448 
0.089453862 0.029053716 -0.00034161464 -0.00049202692 
0.08775482 0.029720977 -0.00021892573 -0.00033156722 
0.086090876 0.030372645 -0.00012190799 -0.00018707466 
0.084461135 0.031006907 -5.110529e-05 -7.6399353e-05 
0.082864672 0.031622134 -4.6975161e-06 -4.7931293e-06 
0.081300559 0.032216872 2.1072813e-05 3.1664853e-05 
0.079767873 0.032789828 3.1196318e-05 4.1968621e-05 
0.078265707 0.033339876 3.103486e-05 3.6466544e-05 
0.076793163 0.033866053 2.5491901e-05 2.419518e-05 
0.075349362 0.03436756 1.8395333e-05 1.1497183e-05 
0.073933441 0.034843755 1.2200836e-05 1.7812236e-06 
0.072544564 0.035294152 8.0256631e-06 -3.9445856e-06 
0.071181924 0.03571841 5.9364582e-06 -6.1950682e-06 
0.06984474 0.036116322 5.3655928e-06 -6.1441421e-06 
0.068532265 0.036487796 5.5262627e-06 -4.9909315e-06 
0.067243784 0.036832851 5.7289523e-06 -3.6229848e-06 
0.065978616 0.037151602 5.5531246e-06 -2.5326845e-06 
0.064736112 0.037444245 4.8786828e-06 -1.8887754e-06 
0.063515656 0.037711056 3.8174059e-06 -1.6628902e-06 
0.062316666 0.037952372 2.598885e-06 -1.7415766e-06 
0.061138591 0.03816859 1.4601953e-06 -1.994622e-06 
0.059980911 0.038360151 5.7079845e-07 -2.3026123e-06 
0.058843134 0.03852754 2.9296428e-09 -2.5623308e-06 
0.057724795 0.038671272 -2.5953742e-07 -2.6885733e-06 
0.056625458 0.038791894 -2.8998986e-07 -2.6217143e-06 
0.055544709 0.03888997 -1.8293705e-07 -2.3397325e-06 
0.054482158 0.038966087 -2.5206964e-08 -1.8670965e-06 
0.053437436 0.039020841 1.2015011e-07 -1.2729155e-06 
0.052410193 0.039054842 2.1792372e-07 -6.5560778e-07 
0.0514001 0.039068702 2.5682784e-07 -1.1770708e-07 
0.050406843 0.039063041 2.4224287e-07 2.61023e-07 
0.049430124 0.039038478 1.8897227e-07 4.431754e-07 
0.04846966 0.038995632 1.1552957e-07 4.3988349e-07 
0.047525179 0.03893512 4.0069997e-08 3.0253555e-07 
0.046596424 0.038857555 -2.2480563e-08 1.0393188e-07 
0.045683148 0.038763543 -6.2422298e-08 -8.4141347e-08 
0.044785114 0.038653687 -7.6356718e-08 -2.0965827e-07 
0.043902092 0.03852858 -6.7084653e-08 -2.5034902e-07 
0.043033865 0.038388809 -4.2201439e-08 -2.1340986e-07 
0.042180219 0.038234949 -1.1646551e-08 -1.2685484e-07 
0.041340949 0.03806757 1.513917e-08 -2.6677326e-08 
0.040515856 0.037887229 3.1619532e-08 5.5508879e-08 
0.039704747 0.037694475 3.5449735e-08 1.0075623e-07 
0.038907432 0.037489845 2.8367389e-08 1.0540095e-07 
0.038123729 0.037273867 1.4897791e-08 7.8499282e-08 
0.037353456 0.037047058 4.5138233e-10 3.6055068e-08 
0.036596438 0.036809923 -1.0487919e-08 -5.4501699e-09 
0.035852501 0.036562958 -1.552516e-08 -3.4084072e-08 
0.035121475 0.036306647 -1.4621163e-08 -4.4862756e-08 
0.034403194 0.036041462 -9.5602388e-09 -3.9439323e-08 
0.033697492 0.035767867 -2.9610976e-09 -2.3859752e-08 
0.033004206 0.035486312 2.7469556e-09 -5.5695689e-09 
0.032323175 0.035197238 6.0415313e-09 9.2137005e-09 
0.03165424 0.034901074 6.5569752e-09 1.7049235e-08 
0.030997245 0.034598241 4.8989144e-09 1.7552743e-08 
0.030352031 0.034289145 2.1932176e-09 1.2663492e-08 
0.029718446 0.033974186 -4.145693e-10 5.4017922e-09 
0.029096334 0.033653749 -2.1318185e-09 -1.3578507e-09 
0.028485544 0.033328213 -2.6749772e-09 -5.7223378e-09 
0.027885924 0.032997944 -2.2166863e-09 -7.0757184e-09 
0.027297324 0.032663298 -1.1991287e-09 -5.8970493e-09 
0.026719593 0.032324622 -1.1282268e-10 -3.2940581e-09 
0.026152584 0.031982254 6.7621532e-10 -4.7946436e-10 
0.025596147 0.031636519 1.0078289e-09 1.6310219e-09 
0.025050137 0.031287735 9.1755251e-10 2.6103012e-09 
0.024514406 0.03093621 5.6548002e-10 2.5041072e-09 
0.023988809 0.030582243 1.4602937e-10 1.6745922e-09 
0.0234732 0.030226121 -1.8575555e-10 5.9383835e-10 
0.022967437 0.029868126 -3.5210299e-10 -3.3380944e-10 
0.022471375 0.029508528 -3.5323323e-10 -8.7451522e-10 
0.021984872 0.029147589 -2.4235175e-10 -9.8399671e-10 
0.021507785 0.028785563 -9.1335873e-11 -7.6264047e-10 
0.021039974 0.028422693 3.8589621e-11 -3.8017468e-10 
0.020581299 0.028059217 1.1314463e-10 -2.4558043e-12 
0.02013162 0.027695363 1.2715076e-10 2.5781263e-10 
0.019690799 0.027331349 9.6503264e-11 3.5876826e-10 
0.019258697 0.026967387 4.5979091e-11 3.1993454e-10 
0.018835178 0.026603683 -1.7274503e-12 1.9701932e-10 
0.018420106 0.02624043 -3.2569884e-11 5.3618843e-11 
0.018013346 0.025877818 -4.267265e-11 -6.0557222e-11 
0.017614765 0.025516027 -3.605027e-11 -1.2035711e-10 
0.017224228 0.025155232 -2.0583501e-11 -1.2501939e-10 
0.016841605 0.024795597 -4.1665727e-12 -9.0658408e-11 
0.016466764 0.024437284 7.7895978e-12 -4.0025278e-11 
0.016099576 0.024080443 1.3176257e-11 6.4770763e-12 
0.015739911 0.02372522 1.2666723e-11 3.6199604e-11 
0.015387643 0.023371756 8.5074809e-12 4.5581156e-11 
0.015042645 0.023020181 3.2555708e-12 3.8312304e-11 
0.014704791 0.022670623 -1.1192546e-12 2.190164e-11 
0.014373958 0.022323201 -3.6210503e-12 4.1944354e-12 
0.014050023 0.021978029 -4.1732099e-12 -9.0914636e-12 
0.013732864 0.021635216 -3.3052835e-12 -1.5398143e-11 
0.013422361 0.021294863 -1.7742056e-12 -1.5079193e-11 
0.013118396 0.020957069 -2.5904388e-13 -1.0357833e-11 
0.01282085 0.020621923 8.0791708e-13 -4.0599307e-12 
0.012529607 0.020289512 1.2760654e-12 1.4256499e-12 
0.012244553 0.019959917 1.2181396e-12 4.7211734e-12 
0.011965573 0.019633215 8.3035819e-13 5.5467515e-12 
0.011692555 0.019309474 3.3434585e-13 4.4507523e-12 
0.011425389 0.018988763 -9.3063432e-14 2.3792477e-12 
0.011163964 0.018671143 -3.5334841e-13 2.6513503e-13 
0.010908174 0.01835667 -4.2723273e-13 -1.2464908e-12 
0.01065791 0.018045399 -3.539879e-13 -1.8984708e-12 
0.010413069 0.017737376 -2.0172105e-13 -1.7734324e-12 
0.010173545 0.017432647 -3.9325573e-14 -1.1595352e-12 
0.0099392372 0.017131253 8.3030376e-14 -3.9799791e-13 
0.0097100437 0.016833231 1.4228911e-13 2.3603801e-13 
0.0094858652 0.016538612 1.4078476e-13 5.9443819e-13 
0.0092666035 0.016247428 9.7877898e-14 6.5931658e-13 
0.0090521619 0.015959705 3.9180167e-14 5.0628837e-13 
0.0088424452 0.015675464 -1.2856217e-14 2.5160846e-13 
0.0086373595 0.015394726 -4.4640459e-14 4.2746992e-15 
0.0084368124 0.015117507 -5.2851828e-14 -1.6420817e-13 
0.0082407129 0.014843822 -4.2336424e-14 -2.2905356e-13 
0.0080489714 0.01457368 -2.2161418e-14 -2.0447765e-13 
0.0078614998 0.01430709 -1.5504677e-15 -1.2682987e-13 
0.0076782114 0.014044058 1.2991838e-14 -3.6534772e-14 
0.0074990208 0.013784585 1.8861831e-14 3.5298362e-14 
0.007323844 0.013528673 1.6980269e-14 7.3161096e-14 
0.0071525986 0.01327632 1.0394627e-14 7.6750517e-14 
0.0069852033 0.013027521 2.6688658e-15 5.6129834e-14 
0.0068215783 0.012782271 -3.4002963e-15 2.5345175e-14 
0.0066616452 0.012540562 -6.4245008e-15 -3.0572104e-15 
0.006505327 0.012302382 -6.4279827e-15 -2.1324618e-14 
0.0063525477 0.012067721 -4.3899934e-15 -2.726732e-14 
0.0062032332 0.011836564 -1.6236535e-15 -2.3116074e-14 
0.0060573101 0.011608897 7.4735564e-16 -1.341475e-14 
0.0059147068 0.011384701 2.0925824e-15 -2.898e-15 
0.0057753526 0.011163959 2.3157712e-15 4.9990285e-15 
0.0056391785 0.010946651 1.7207569e-15 8.7541558e-15 
0.0055061163 0.010732755 7.7013646e-16 8.5925728e-15 
0.0053760994 0.010522249 -1.0585812e-16 5.8485986e-15 
0.0052490623 0.010315109 -6.4988575e-16 2.2040675e-15 
0.0051249407 0.010111311 -7.965463e-16 -9.4262689e-16 
0.0050036716 0.0099108276 -6.3652275e-16 -2.8032536e-15 
0.0048851932 0.0097136328 -3.2628809e-16 -3.247118e-15 
0.0047694446 0.0095196987 -1.8202894e-17 -2.6056854e-15 
0.0046563665 0.0093289963 1.8861953e-16 -1.4286156e-15 
0.0045459003 0.0091414962 2.5927739e-16 -2.5110623e-16 
0.004437989 0.0089571681 2.2266416e-16 5.771774e-16 
0.0043325764 0.0087759809 1.2788187e-16 9.1715465e-16 
0.0042296074 0.0085979029 2.5646484e-17 8.3601841e-16 
0.0041290281 0.008422902 -4.6210417e-17 5.0490979e-16 
0.0040307856 0.0082509454 -7.7802192e-17 9.551843e-17 
0.0039348282 0.0080819996 -7.2440827e-17 -2.3343668e-16 
0.003841105 0.0079160311 -4.6465071e-17 -4.1608542e-16 
0.0037495663 0.0077530056 -1.3416164e-17 -4.4112873e-16 
0.0036601633 0.0075928887 8.8768946e-18 -3.5166281e-16 
0.0035728483 0.0074356455 2.0864151e-17 -2.1241512e-16 
0.0034875745 0.0072812408 2.0108299e-17 -8.3166637e-17 
0.0034042961 0.0071296394 1.1464483e-17 1.6808565e-18 
0.0033229681 0.0069808057 3.5897086e-18 2.7885368e-17 
0.0032435467 0.0068347039 -3.671988e-18 8.7731866e-18 
0.0031659888 0.0066912981 -7.5846174e-18 -3.5935878e-17 
0.0030902523 0.0065505524 -6.9366999e-18 -8.0648068e-17 
0.0030162958 0.0064124307 -3.7657055e-18 -1.0940392e-16 
0.0029440791 0.0062768968 -5.5149073e-19 -1.1338324e-16 
0.0028735625 0.0061439148 2.8641738e-18 -9.9061016e-17 
0.0028047073 0.0060134483 4.2160791e-18 -7.9552365e-17 
0.0027374757 0.0058854614 5.9214574e-18 -6.221665e-17 
0.0026718306 0.0057599181 4.3024283e-18 -5.3431266e-17 
0.0026077356 0.0056367822 1.6702469e-18 -4.8629381e-17 
0.0025451554 0.0055160181 -9.2070339e-19 -4.7282843e-17 
0.002484055 0.00539759 -3.6861195e-18 -4.9165255e-17 
0.0024244006 0.0052814622 -4.2326468e-18 -5.2694065e-17 
0.0023661589 0.0051675993 -3.3064025e-18 -6.1786274e-17 
0.0023092974 0.0050559662 -2.8851775e-18 -6.7097867e-17 
0.0022537841 0.0049465277 -9.9433087e-19 -6.532283e-17 
0.002199588 0.004839249 2.8492861e-18 -6.1084393e-17 
0.0021466786 0.0047340954 3.55556e-18 -5.3620568e-17 
0.0020950261 0.0046310326 2.6522785e-18 -4.4923497e-17 
0.0020446015 0.0045300264 1.4811568e-18 -3.9422363e-17 
0.0019953761 0.004431043 9.0997673e-19 -3.9012234e-17 
0.0019473221 0.0043340487 -1.4642684e-18 -4.5134086e-17 
0.0019004124 0.0042390103 -2.1759904e-18 -5.3092629e-17 
0.0018546202 0.0041458948 -3.1385573e-18 -5.6271653e-17 
0.0018099195 0.0040546693 -3.1912321e-18 -5.6160718e-17 
0.0017662848 0.0039653015 -1.5204017e-18 -5.5143901e-17 
0.0017236913 0.0038777594 -5.4757687e-19 -5.6665541e-17 
0.0016821146 0.0037920112 8.2700016e-19 -5.8046988e-17 
0.0016415309 0.0037080254 5.019899e-19 -6.1149228e-17 
0.0016019169 0.003625771 -1.0285573e-18 -6.2435941e-17 
0.0015632499 0.0035452173 -2.7176884e-18 -5.7045776e-17 
0.0015255077 0.0034663338 -2.9367235e-18 -4.7515564e-17 
0.0014886686 0.0033890906 3.1775188e-19 -3.2614395e-17 
0.0014527113 0.0033134579 3.0626996e-18 -2.4975134e-17 
0.0014176151 0.0032394065 1.944491e-18 -2.8761947e-17 
0.0013833597 0.0031669075 6.5903256e-19 -3.462673e-17 
0.0013499253 0.0030959322 8.0949303e-19 -3.9354221e-17 
0.0013172925 0.0030264524 1.3661681e-19 -4.1757635e-17 
0.0012854424 0.0029584405 -5.0737259e-19 -4.4540734e-17 
0.0012543566 0.0028918687 8.3808872e-19 -4.3527957e-17 
0.0012240169 0.0028267102 2.399074e-18 -4.017169e-17 
0.0011944058 0.0027629382 2.4043908e-18 -3.8114161e-17 
0.0011655059 0.0027005263 1.6927716e-18 -3.6671393e-17 
0.0011373004 0.0026394487 1.843744e-18 -3.7176035e-17 
0.0011097729 0.0025796797 1.2470143e-18 -3.7546289e-17 
