% ./projectseries.x -T0 0 -T1 400 -bd basis2/ -Nb 4 -d data/u2 -ul u2 -o u2basis2.asc 
0.26901245 -4.129585e-18 2.907005e-17 -1.3161149e-17 
0.18338441 0.01437991 0.0056910306 -0.0019081989 
0.11554866 0.029431389 0.0055255949 -0.0014729429 
0.069040592 0.048958505 -0.0006588557 0.0023937256 
0.040874195 0.073071844 -0.0064835707 0.0021218022 
0.025655349 0.10120573 -0.0096286059 -0.0016839885 
0.016237351 0.13055535 -0.0074168299 -0.0015206809 
0.015906576 0.16331721 -0.0032599469 -0.00057203823 
0.022011036 0.20240489 -0.0031575455 -8.6731041e-05 
0.028451747 0.24914616 -0.0054806963 -0.0012697752 
0.031373797 0.28480149 3.1304388e-16 -4.9381495e-16 
0.027150171 0.27445379 0.026532139 0.0073546537 
0.021852545 0.24290365 0.059467342 0.013991056 
0.017172666 0.21444723 0.08906375 0.017115371 
0.015416689 0.19793885 0.11505664 0.020509385 
0.014396509 0.18785961 0.1371999 0.02100844 
0.015533009 0.17663097 0.15847982 0.02143847 
0.020376527 0.16557618 0.18647231 0.015228416 
0.024587152 0.1569894 0.22409592 0.0036571342 
0.02752507 0.15046549 0.26971774 -0.0071822032 
0.028415691 0.14641257 0.3011819 -3.6871707e-16 
0.029072262 0.14344674 0.29303601 0.033941824 
0.026531312 0.13974342 0.2722388 0.074005237 
0.022239548 0.13494187 0.25723491 0.10642485 
0.01946543 0.12899551 0.24574878 0.13263444 
0.01907452 0.1239821 0.2319934 0.15955778 
0.019573955 0.12248514 0.21514427 0.18761056 
0.018687551 0.12233536 0.20169487 0.21698941 
0.020466339 0.12067029 0.19508441 0.24744303 
0.024035947 0.1202691 0.18881757 0.2758806 
0.025200728 0.1223358 0.17814643 0.28806919 
0.02200243 0.12440111 0.16556091 0.2707887 
0.015081732 0.12645332 0.1537242 0.24157486 
0.010220912 0.1287897 0.14509191 0.21388358 
0.0094189299 0.13068261 0.14107243 0.18892049 
0.010021278 0.1327317 0.14118609 0.16801565 
0.011818314 0.13494432 0.14327216 0.15165521 
0.013570121 0.13806673 0.14533197 0.1388392 
0.013640331 0.14316779 0.14692764 0.12854419 
0.012285645 0.1497078 0.14905015 0.119779 
0.010544949 0.15601287 0.1527813 0.11232908 
0.009507575 0.16036889 0.15884901 0.10644435 
0.0094295103 0.16175925 0.16709973 0.10213792 
0.0097915137 0.16027748 0.17594536 0.09979384 
0.010214446 0.15711239 0.18362934 0.099849735 
0.010828915 0.15380096 0.18949562 0.10181375 
0.012045865 0.15109293 0.19397039 0.1042634 
0.013934378 0.14889859 0.19776892 0.10622551 
0.016141319 0.14693708 0.20103679 0.10817793 
0.018659697 0.14513081 0.20324183 0.11128708 
0.021484146 0.14359313 0.20399469 0.11616456 
0.024140025 0.14225937 0.20356117 0.12257368 
0.026050186 0.14077281 0.20269156 0.12977119 
0.026958016 0.13886605 0.20210153 0.13692344 
0.027105798 0.13653728 0.2020731 0.14334016 
0.027063314 0.1338284 0.2023509 0.14857995 
0.027266179 0.13075547 0.20218917 0.15252199 
0.027583296 0.12750213 0.20066024 0.15530139 
0.027472589 0.12449077 0.19716038 0.15716302 
0.026555033 0.12225674 0.1916798 0.15825338 
0.024933231 0.12116383 0.18475799 0.15837408 
0.023068427 0.12117198 0.17733163 0.1569698 
0.021329839 0.12183281 0.17040886 0.15368511 
0.019910309 0.12246358 0.16472436 0.14892301 
0.018902446 0.1225301 0.16039761 0.14386014 
0.0180222 0.12194002 0.15712691 0.13969913 
0.01685918 0.1211856 0.15473271 0.13676213 
0.015480591 0.12104557 0.15329413 0.13451594 
0.014276414 0.12190727 0.1530932 0.13237863 
0.013545043 0.12371643 0.1542729 0.13027369 
0.013583379 0.12633207 0.15665634 0.12843056 
0.014626674 0.12977574 0.15968071 0.1271657 
0.016549913 0.13416492 0.16234861 0.12708116 
0.018885943 0.13940354 0.16384549 0.1285871 
0.021101529 0.14506774 0.16446524 0.13081083 
0.022665123 0.15072262 0.16537248 0.13181044 
0.023053397 0.15605441 0.16746741 0.13024308 
0.022055856 0.16076337 0.17086047 0.12650385 
0.020051609 0.16479108 0.17496256 0.12210564 
0.017845522 0.16835306 0.17891402 0.11833749 
0.01617967 0.1714668 0.18218639 0.11587489 
0.015428467 0.17399955 0.18461467 0.11504914 
0.015666151 0.17591077 0.18619415 0.11596721 
0.016818121 0.17719434 0.1870954 0.11841756 
0.018628707 0.17783113 0.18762898 0.12189779 
0.020674181 0.17783217 0.18813757 0.12577021 
0.022500123 0.17729268 0.18891029 0.12940552 
0.023770883 0.1764046 0.19009142 0.13229695 
0.024346882 0.17541271 0.19163397 0.13415328 
0.024257162 0.17450649 0.19336686 0.1349563 
0.023635691 0.17370109 0.19507822 0.13494246 
0.022665891 0.17282761 0.19655107 0.13447868 
0.021526328 0.17165568 0.19760222 0.1339255 
0.02036127 0.17002238 0.19813448 0.13357483 
0.019276892 0.16788016 0.19815982 0.13364104 
0.018334355 0.16527695 0.19777156 0.13425775 
0.017544823 0.16231987 0.19707854 0.13547107 
0.016878251 0.15915221 0.19614691 0.13722742 
0.01628579 0.15594358 0.19498476 0.13935699 
0.01572442 0.15287358 0.19355541 0.14157947 
0.015165769 0.15010081 0.19179462 0.14354636 
0.014582499 0.14775482 0.18962747 0.14490093 
0.013932351 0.14595954 0.18700215 0.14533976 
0.013168648 0.14482349 0.18394345 0.1446745 
0.012267338 0.14437762 0.18058183 0.14288397 
0.011244172 0.14453858 0.17711961 0.14012418 
0.010162691 0.14514643 0.17375381 0.13667879 
0.0091308129 0.14602837 0.17061823 0.13287243 
0.0082737831 0.14703916 0.16778406 0.12898616 
0.007698272 0.14808269 0.16529313 0.12520895 
0.0074739691 0.14912318 0.16317661 0.12163646 
0.0076358635 0.1501809 0.161445 0.11829238 
0.0081868544 0.15130725 0.16006709 0.11515339 
0.0090852547 0.15253583 0.15896532 0.11219042 
0.010227129 0.15382363 0.15803746 0.1094243 
0.011447688 0.15500349 0.15719305 0.10696423 
0.012555401 0.15575814 0.1563856 0.10500711 
0.013395317 0.15563896 0.15561022 0.10379839 
0.013917826 0.1541739 0.15484501 0.10356597 
0.014196009 0.15105864 0.15400474 0.10443882 
0.01438259 0.14632792 0.15300923 0.10638838 
0.014633868 0.14040703 0.15184086 0.10929219 
0.015058462 0.13400437 0.15048085 0.11309521 
0.015768826 0.12789173 0.1489016 0.11785442 
0.016837634 0.12271387 0.14711392 0.12360875 
0.018114436 0.11892165 0.14513816 0.13020268 
0.019170836 0.1168388 0.1429235 0.13716657 
0.01945677 0.11669139 0.14038271 0.14363077 
0.018529541 0.11850538 0.13753745 0.14835377 
0.016266535 0.12198841 0.13455517 0.15016682 
0.013030242 0.12639237 0.13178749 0.14850864 
0.0095852805 0.13063307 0.12981722 0.14343742 
0.0067723481 0.13401112 0.12905421 0.13561584 
0.0055575025 0.13642134 0.12955367 0.12625299 
0.0067687722 0.13764633 0.13156602 0.1165229 
0.010395681 0.13711785 0.13530138 0.10772535 
0.01563939 0.13495043 0.14027218 0.10149127 
0.021479647 0.1319918 0.14592397 0.098505524 
0.026842807 0.12950855 0.15197657 0.098288966 
0.031085322 0.12897243 0.15776122 0.10035336 
0.034597231 0.13059299 0.16224161 0.10471074 
0.036915211 0.13263238 0.16494633 0.1108498 
0.037009896 0.13388525 0.16538943 0.11681585 
0.033674026 0.1354008 0.16395393 0.11993006 
0.027251506 0.13797701 0.16242898 0.11894967 
0.02041552 0.14098362 0.16258024 0.11622242 
0.014868047 0.14337839 0.16654338 0.11512285 
0.013014886 0.14472065 0.17445157 0.11732406 
0.012259007 0.14333142 0.18543708 0.12381344 
0.011352459 0.13798833 0.19809608 0.13414438 
0.011236833 0.13141984 0.20845151 0.14475567 
0.012628898 0.12580763 0.21422763 0.15220696 
0.014567384 0.12002297 0.21760164 0.15582372 
0.016776836 0.11405301 0.21963944 0.15679662 
0.020077249 0.1101666 0.21734835 0.15701294 
0.024431445 0.10921456 0.2100347 0.15826311 
0.029902777 0.1124967 0.19951397 0.16044702 
0.035238191 0.1198581 0.18887839 0.16120315 
0.037978258 0.12894214 0.18225751 0.15895385 
0.037053831 0.13824514 0.17992678 0.1546789 
0.032465891 0.14775763 0.17905917 0.15082602 
0.025333076 0.15645136 0.17957938 0.1476518 
0.01782072 0.16267215 0.1829196 0.14327545 
0.011823972 0.16585624 0.1881945 0.13869168 
0.0090805891 0.16715772 0.19336633 0.13736499 
0.0095207102 0.16743053 0.19774505 0.13996844 
0.012365211 0.16672814 0.20227878 0.14226303 
0.016058463 0.16546772 0.20722893 0.13993872 
0.019175463 0.16402848 0.21176486 0.13374479 
0.021051103 0.16255318 0.21528989 0.12656085 
0.02213076 0.16077654 0.21709811 0.12180811 
0.023270263 0.1578583 0.21661259 0.12154828 
0.02379818 0.15390699 0.21414527 0.12553451 
0.022753057 0.14990472 0.21095659 0.13240525 
0.020592072 0.14577546 0.20795539 0.14132074 
0.017703924 0.14055405 0.20500909 0.15177541 
0.014295819 0.13403483 0.20176344 0.16248942 
0.010886703 0.12670443 0.19815424 0.17173729 
0.0075088361 0.11918873 0.19409467 0.17794966 
0.00439796 0.11291508 0.1891797 0.17985106 
0.0026931055 0.10918344 0.18342901 0.17707782 
0.0029871745 0.10738204 0.178239 0.1708187 
0.0052314557 0.10603327 0.17464481 0.16338454 
0.0089729153 0.10459746 0.17183324 0.15677742 
0.013800013 0.10312575 0.16902114 0.15115258 
0.019103581 0.10186784 0.16625021 0.14522117 
0.024209426 0.1013859 0.16322161 0.13842847 
0.028347505 0.10230774 0.15947118 0.13132915 
0.030690384 0.10446164 0.15505864 0.12474815 
0.030906602 0.10705609 0.15042252 0.11930457 
0.029444659 0.10938827 0.14594896 0.1148799 
0.026662875 0.11072069 0.14221523 0.11109617 
0.022039215 0.11102378 0.13940702 0.10857149 
0.015748784 0.11096136 0.13702832 0.10793502 
0.0086510597 0.11105057 0.13499044 0.10877601 
0.0019810061 0.11112725 0.13396552 0.11036927 
-0.0027699969 0.11098119 0.13391257 0.11235907 
-0.0047168765 0.11034385 0.13500377 0.11446711 
-0.0039946325 0.10928087 0.13794848 0.11603873 
-0.00083279503 0.1079646 0.14279776 0.11660707 
0.0040276533 0.1063849 0.14873834 0.11646696 
0.0096007117 0.10477538 0.15444063 0.11649327 
0.015481312 0.1033515 0.15900667 0.11741162 
0.020835991 0.10217241 0.16229921 0.11906663 
0.024323474 0.10178953 0.16419027 0.12075471 
0.025040439 0.10252115 0.16469351 0.12138994 
0.022974338 0.10418458 0.16401906 0.11997516 
0.019058106 0.10630083 0.16267072 0.11668245 
0.014523029 0.10836157 0.16129863 0.11291603 
0.010616619 0.11007582 0.16027461 0.10989201 
0.0080060804 0.11146825 0.15976218 0.10807357 
0.0065790507 0.11261071 0.15978676 0.10712283 
0.0068616315 0.11316946 0.16032003 0.10591657 
0.0091872936 0.11271671 0.16079218 0.10392403 
0.012926152 0.1114794 0.15991753 0.10181852 
0.017049651 0.109879 0.15692389 0.10069152 
0.020541752 0.10775989 0.15270225 0.10071068 
0.022560498 0.10467581 0.14852739 0.10118403 
0.022634071 0.10044527 0.1450099 0.10149756 
0.020697134 0.095242651 0.14242639 0.10167165 
0.01747464 0.089339514 0.14074708 0.10218888 
0.014309795 0.083004333 0.139578 0.10345346 
0.012118195 0.076606502 0.13842525 0.1054187 
0.01099809 0.07058783 0.13688249 0.10763353 
0.010684549 0.065268744 0.13486333 0.10946562 
0.010884094 0.060751943 0.13265202 0.11038328 
0.011245242 0.056981756 0.1306117 0.11015525 
0.011424967 0.053715362 0.12902957 0.10891959 
0.011245209 0.050605102 0.12799704 0.10711826 
0.010720123 0.047363721 0.12734198 0.10531357 
0.0099755797 0.043828609 0.12671417 0.10400137 
0.0092007438 0.040038634 0.12568707 0.10344608 
0.0086021668 0.036274574 0.12393236 0.10353533 
0.0083072247 0.032958703 0.12135991 0.10382255 
0.0083203843 0.030462275 0.11805394 0.10381144 
0.0085851959 0.028960431 0.11414969 0.10321173 
0.0090079557 0.028437469 0.10983742 0.10195287 
0.0093990991 0.028804594 0.10539302 0.10007228 
0.0094705351 0.029962732 0.10111375 0.097660303 
0.0089661025 0.03175434 0.097211264 0.094884044 
0.0078135438 0.033923474 0.09372144 0.091995785 
0.0061931492 0.03617999 0.090423291 0.089267017 
0.0043996632 0.038335264 0.086851413 0.086984348 
0.0027837706 0.040396913 0.082510887 0.085577726 
0.0019860836 0.0425533 0.077264473 0.085378952 
0.002477115 0.045079018 0.071657465 0.086035022 
0.0040394154 0.048060353 0.066725934 0.086656209 
0.0060350705 0.051102886 0.063152017 0.086517549 
0.0078065347 0.053486893 0.061096344 0.085080607 
0.0089229602 0.054741282 0.060455155 0.08214626 
0.0092971377 0.05484583 0.060840807 0.078168003 
0.0091362814 0.053963477 0.061702587 0.073976349 
0.0087519503 0.052244526 0.062595209 0.070300411 
0.008348127 0.049928778 0.063332761 0.067517836 
0.0079855179 0.047336774 0.063952338 0.065687419 
0.0076771812 0.044736256 0.064597082 0.064638261 
0.0074401584 0.042326846 0.065372585 0.064075316 
0.0072675542 0.040276648 0.066261441 0.063706491 
0.0071116449 0.038714956 0.067127033 0.063330734 
0.0069118915 0.037709648 0.06776512 0.062834551 
0.006632114 0.037267485 0.067967333 0.062151777 
0.0062800647 0.037349563 0.067581657 0.06125109 
0.0058984606 0.03788573 0.066557291 0.060133669 
0.0055360598 0.038774775 0.06497066 0.058812821 
0.0052245349 0.039880001 0.063011485 0.057300516 
0.0049700093 0.041047263 0.060913876 0.055621783 
0.00476 0.042143376 0.058869281 0.05384424 
0.0045802406 0.043086919 0.056977044 0.052082516 
0.0044273037 0.04385487 0.055251908 0.050466943 
0.0043104938 0.044468287 0.053662952 0.049098462 
0.0042436277 0.044969795 0.052170132 0.048018208 
0.0042351314 0.045402954 0.050744236 0.047204628 
0.0042825616 0.0457985 0.049372793 0.04659207 
0.0043726491 0.046169527 0.048057296 0.046097474 
0.0044846843 0.046515256 0.046805776 0.045643584 
0.0045964181 0.046829974 0.045624778 0.045172485 
0.0046906139 0.047111435 0.044514549 0.044649257 
0.004759369 0.047364468 0.043468846 0.044058978 
0.004804415 0.047599349 0.042478228 0.04340066 
0.0048338468 0.04782733 0.041534448 0.04268077 
0.0048574006 0.04805618 0.040633694 0.041908147 
0.0048825719 0.048287441 0.039777397 0.041091418 
0.0049127892 0.048515939 0.038970561 0.040238935 
0.004947588 0.048731347 0.03821871 0.039360116 
0.0049840034 0.048921068 0.037524963 0.038466583 
0.005018296 0.049073442 0.036888398 0.037572009 
0.0050474003 0.049180299 0.036304005 0.036690557 
0.0050697896 0.049238333 0.035763886 0.035834615 
0.0050856743 0.049249162 0.035258981 0.035012734 
0.0050966378 0.04921835 0.03478067 0.034228506 
0.0051049545 0.049153768 0.034321826 0.033480667 
0.0051128657 0.049063823 0.03387719 0.032764301 
0.0051220147 0.048955955 0.033443227 0.032072649 
0.0051331374 0.048835688 0.033017736 0.031398943 
0.0051460241 0.048706312 0.032599446 0.030737763 
0.0051597145 0.048569085 0.032187731 0.030085684 
0.0051728473 0.048423781 0.031782409 0.029441247 
0.0051840574 0.048269375 0.03138358 0.028804458 
0.0051923106 0.048104674 0.030991452 0.02817611 
0.005197093 0.047928774 0.03060616 0.027557147 
0.0051984276 0.04774127 0.030227631 0.026948234 
0.0051967412 0.047542259 0.029855522 0.026349576 
0.0051926504 0.047332189 0.029489267 0.025760954 
0.0051867426 0.047111654 0.029128186 0.025181885 
0.0051794181 0.046881213 0.028771627 0.024611831 
0.0051708279 0.046641283 0.028419071 0.024050362 
0.0051609031 0.046392125 0.028070182 0.023497236 
0.0051494465 0.046133894 0.027724798 0.022952403 
0.0051362423 0.045866721 0.027382863 0.022415928 
0.0051211455 0.045590792 0.02704436 0.02188791 
0.0051041265 0.045306384 0.026709245 0.021368409 
0.0050852692 0.045013867 0.026377412 0.020857411 
0.0050647337 0.044713666 0.026048693 0.020354837 
0.0050427044 0.044406222 0.025722878 0.019860573 
0.0050193447 0.044091951 0.02539975 0.01937451 
0.0049947703 0.043771222 0.02507912 0.018896567 
0.0049690442 0.043444357 0.02476085 0.018426695 
0.0049421904 0.043111645 0.02444486 0.017964871 
0.0049142155 0.042773362 0.024131125 0.017511071 
0.0048851298 0.042429787 0.023819651 0.017065264 
0.0048549609 0.042081209 0.023510461 0.016627401 
0.0048237575 0.041727926 0.023203574 0.016197416 
0.0047915845 0.041370241 0.022898993 0.01577524 
0.004758514 0.041008453 0.022596707 0.015360806 
0.0047246155 0.040642847 0.022296695 0.014954054 
0.0046899495 0.040273696 0.021998932 0.014554933 
0.0046545647 0.039901257 0.021703406 0.014163396 
0.0046184994 0.039525778 0.021410114 0.013779398 
0.0045817862 0.039147495 0.021119071 0.013402887 
0.0045444556 0.038766643 0.020830299 0.013033808 
0.0045065397 0.038383451 0.020543829 0.012672099 
0.0044680737 0.037998146 0.020259688 0.012317694 
0.0044290953 0.03761095 0.019977902 0.011970526 
0.0043896433 0.03722208 0.019698489 0.011630527 
0.0043497556 0.036831748 0.019421466 0.011297627 
0.0043094675 0.036440158 0.019146847 0.010971757 
0.0042688114 0.036047505 0.018874648 0.010652846 
0.0042278163 0.03565398 0.018604885 0.010340824 
0.0041865095 0.035259767 0.018337575 0.010035616 
0.0041449166 0.034865044 0.01807274 0.0097371464 
0.0041030629 0.034469985 0.017810397 0.0094453381 
0.0040609737 0.034074761 0.017550566 0.009160111 
0.0040186744 0.033679534 0.017293263 0.0088813833 
0.00397619 0.033284465 0.017038502 0.008609072 
0.003933545 0.032889709 0.016786297 0.008343093 
0.0038907628 0.032495416 0.016536657 0.0080833612 
0.0038478656 0.032101729 0.016289594 0.0078297904 
0.0038048747 0.03170879 0.016045117 0.0075822939 
0.0037618103 0.031316732 0.015803233 0.0073407839 
0.003718692 0.030925687 0.01556395 0.0071051717 
0.0036755387 0.03053578 0.015327274 0.0068753677 
0.003632369 0.030147135 0.015093211 0.0066512815 
0.0035892011 0.029759868 0.014861764 0.0064328221 
0.0035460526 0.029374094 0.014632935 0.0062198979 
0.0035029407 0.028989922 0.014406726 0.0060124171 
0.003459882 0.028607457 0.014183137 0.0058102875 
0.0034168926 0.028226801 0.013962166 0.0056134168 
0.0033739878 0.027848052 0.013743811 0.0054217128 
0.0033311825 0.027471303 0.013528069 0.0052350829 
0.0032884911 0.027096644 0.013314934 0.0050534349 
0.0032459274 0.026724161 0.013104402 0.0048766764 
0.003203505 0.026353938 0.012896467 0.0047047152 
0.0031612368 0.025986053 0.012691121 0.0045374595 
0.0031191354 0.025620581 0.012488355 0.0043748178 
0.003077213 0.025257596 0.012288161 0.0042166989 
0.0030354813 0.024897166 0.012090529 0.0040630121 
0.0029939516 0.024539356 0.011895448 0.0039136674 
0.0029526347 0.024184228 0.011702905 0.0037685751 
0.0029115411 0.023831843 0.011512889 0.0036276464 
0.0028706807 0.023482256 0.011325387 0.0034907931 
0.0028300632 0.023135519 0.011140384 0.0033579277 
0.0027896978 0.022791684 0.010957867 0.0032289635 
0.0027495934 0.022450796 0.010777819 0.0031038147 
0.0027097583 0.022112902 0.010600226 0.0029823962 
0.0026702007 0.021778041 0.010425071 0.0028646241 
0.0026309283 0.021446252 0.010252337 0.0027504151 
0.0025919484 0.021117573 0.010082008 0.0026396872 
0.002553268 0.020792036 0.0099140641 0.0025323591 
0.0025148938 0.020469672 0.0097484885 0.0024283509 
0.002476832 0.020150511 0.0095852622 0.0023275835 
0.0024390887 0.019834577 0.0094243662 0.0022299789 
0.0024016693 0.019521895 0.0092657809 0.0021354602 
0.0023645793 0.019212487 0.0091094867 0.0020439519 
0.0023278235 0.018906371 0.0089554635 0.0019553793 
0.0022914067 0.018603564 0.0088036908 0.0018696689 
0.0022553331 0.018304082 0.008654148 0.0017867486 
0.002219607 0.018007937 0.0085068142 0.0017065472 
0.0021842319 0.017715141 0.0083616682 0.0016289949 
0.0021492113 0.017425702 0.0082186888 0.001554023 
0.0021145486 0.017139627 0.0080778542 0.0014815639 
0.0020802465 0.016856922 0.0079391429 0.0014115515 
0.0020463077 0.01657759 0.0078025329 0.0013439206 
0.0020127346 0.016301633 0.0076680022 0.0012786074 
0.0019795293 0.01602905 0.0075355288 0.0012155492 
0.0019466936 0.015759842 0.0074050903 0.0011546845 
0.0019142293 0.015494003 0.0072766646 0.0010959531 
0.0018821377 0.015231531 0.0071502291 0.0010392958 
0.00185042 0.014972418 0.0070257616 0.00098465496 
0.0018190771 0.014716658 0.0069032394 0.00093197374 
0.0017881098 0.014464242 0.0067826401 0.00088119666 
0.0017575186 0.014215159 0.0066639412 0.0008322694 
