% ./projectseries.x -T0 0 -T1 400 -bd UBbasis/ -Nb 4 -d data/u2 -ul u2 -o u2UBbasis.asc 
0.0080667678 0.021104639 0.0066969156 0.0089623806 
0.0089209093 0.03301591 0.0050544423 0.01154588 
0.0049384018 0.040977836 -0.0043559911 0.0037205287 
0.0019882609 0.048306959 -0.010947397 -0.0032183586 
0.0043836305 0.05687634 -0.011456242 -0.0061285767 
0.012831568 0.06785157 -0.0084649889 -0.003339161 
0.026312857 0.081171331 -0.0045364197 0.0045189613 
0.042926826 0.094753086 0.00021029892 0.015602354 
0.06159102 0.1071296 0.0050049515 0.022786456 
0.081777152 0.11811024 0.0067742102 0.020219417 
0.10306258 0.12674716 0.0040861669 0.0095140922 
0.12385917 0.13139877 -0.00082429463 -0.0083539916 
0.14193916 0.13066532 -0.0037192943 -0.026937632 
0.15562896 0.12533588 -0.003303888 -0.042222812 
0.16508345 0.1184451 -0.0075004445 -0.053926329 
0.17204076 0.11251291 -0.020368013 -0.055609713 
0.17790844 0.10742819 -0.033598734 -0.04929128 
0.1842902 0.1018182 -0.043177128 -0.041946565 
0.19299964 0.09567067 -0.050982605 -0.035754253 
0.20468015 0.091904523 -0.052793451 -0.026410838 
0.21836427 0.092881369 -0.047174758 -0.013587398 
0.2325652 0.095991434 -0.038748794 -0.0015954019 
0.24640329 0.096554499 -0.030215561 0.0071356394 
0.25960077 0.091861722 -0.020812604 0.013953335 
0.27137398 0.082784685 -0.0072633818 0.018138103 
0.28026802 0.072184433 0.011451205 0.021881576 
0.28595363 0.063548928 0.028061559 0.024014186 
0.28897508 0.058104239 0.037492597 0.022571866 
0.29005244 0.055260647 0.041608851 0.021378893 
0.28919844 0.054056177 0.043748847 0.026281412 
0.28641877 0.054471864 0.044563012 0.034083744 
0.28191147 0.055784728 0.045408607 0.039255377 
0.27676133 0.056436575 0.048720549 0.041224632 
0.27158018 0.05565453 0.053347282 0.04086722 
0.26623386 0.053972552 0.056336612 0.03838014 
0.26096737 0.05255514 0.056370272 0.032293105 
0.25626435 0.052741753 0.053007943 0.023295568 
0.25230939 0.05533555 0.046175273 0.01440903 
0.24904579 0.060228457 0.03665516 0.0080504522 
0.24645938 0.066619136 0.025607299 0.0046862198 
0.24465479 0.073399776 0.014136391 0.0029496929 
0.24371735 0.079624236 0.0033769087 0.0010392326 
0.24362033 0.084860896 -0.0055052684 -0.0019522115 
0.24422094 0.089127791 -0.011938416 -0.0060361615 
0.24533845 0.092586621 -0.016146629 -0.010843446 
0.24682697 0.095326431 -0.018678092 -0.015771607 
0.24855722 0.097322866 -0.020135525 -0.02020966 
0.25041858 0.09857561 -0.02094347 -0.023603694 
0.2523615 0.099215505 -0.021150468 -0.025430921 
0.25436072 0.099408382 -0.020600576 -0.025660787 
0.25635941 0.099189206 -0.01911671 -0.024920588 
0.25828283 0.098468121 -0.016587562 -0.023855059 
0.26004984 0.097203194 -0.013086531 -0.022472279 
0.2615592 0.095510505 -0.0088219736 -0.020117858 
0.26270042 0.093569926 -0.0040895718 -0.016154954 
0.26338245 0.091479004 0.0006794099 -0.010586047 
0.26356485 0.089218919 0.0050530108 -0.0041655888 
0.26323198 0.086732083 0.0088945504 0.001872418 
0.26231441 0.084040175 0.012426308 0.0064516251 
0.26070454 0.081283857 0.015943038 0.0093268249 
0.25838646 0.078661464 0.019481672 0.011069207 
0.25554691 0.076398175 0.022729798 0.012294969 
0.25254211 0.074776552 0.025248209 0.012914448 
0.24968488 0.074119258 0.026778477 0.01238787 
0.24709012 0.074716912 0.027357596 0.010626147 
0.24475189 0.076716027 0.027285216 0.0082974676 
0.242673 0.080055852 0.026984588 0.0063328279 
0.24091758 0.084538324 0.026785566 0.0051556409 
0.23957407 0.089940232 0.026610634 0.0045603348 
0.23870012 0.096045734 0.025842651 0.0041940469 
0.23831423 0.10255786 0.023725381 0.003885554 
0.23842868 0.10906149 0.019930995 0.0036250894 
0.2390946 0.11512334 0.014816074 0.0033894291 
0.24041194 0.12042941 0.0092958891 0.0029746474 
0.24246118 0.12490823 0.0043959362 0.0020959424 
0.24519759 0.12875297 0.00070269265 0.00067987167 
0.24842593 0.13226911 -0.0018403218 -0.0010659034 
0.25187943 0.13564225 -0.0035886264 -0.0027576977 
0.25532086 0.13883792 -0.0047676337 -0.0039022388 
0.25860463 0.14172441 -0.005450376 -0.0040952542 
0.26167953 0.14423821 -0.0057133089 -0.0033336502 
0.26454424 0.14642723 -0.0056496463 -0.0020656767 
0.2672001 0.14838753 -0.005328459 -0.00099435423 
0.26962959 0.15017792 -0.0047818107 -0.00082065579 
0.27180601 0.15178818 -0.0040319152 -0.0019548348 
0.27371943 0.15317548 -0.0031676359 -0.0043695399 
0.27538521 0.15430975 -0.002398182 -0.0076984219 
0.27682066 0.15518603 -0.0019791325 -0.011412615 
0.27801253 0.15581403 -0.0020607098 -0.014933906 
0.27890538 0.15620532 -0.0026043675 -0.01774982 
0.27941996 0.15637269 -0.0033949062 -0.019559047 
0.27949214 0.15633679 -0.0041138235 -0.02031919 
0.27910755 0.15613056 -0.0044604573 -0.020169467 
0.27831061 0.15580042 -0.0042726725 -0.0193309 
0.27718933 0.15540008 -0.0035730612 -0.018027539 
0.27585059 0.15497639 -0.0025147609 -0.016423509 
0.27439409 0.15455248 -0.0012829711 -0.014605273 
0.27288559 0.15411569 -3.043191e-05 -0.012628376 
0.27133351 0.15361938 0.0011250507 -0.010585484 
0.26968089 0.15300453 0.0020737946 -0.0086331433 
0.26782538 0.15223455 0.0027073377 -0.0069506849 
0.2656662 0.15132322 0.0029391117 -0.0056651074 
0.26315706 0.15033756 0.0027251041 -0.0048143311 
0.26033751 0.14938118 0.0020710921 -0.0043772859 
0.25732798 0.14857455 0.0010246392 -0.0043228291 
0.25429345 0.14803881 -0.00034784674 -0.0046213761 
0.25139483 0.14787997 -0.0019848265 -0.0052262508 
0.24874983 0.14817459 -0.0038402771 -0.0060716327 
0.24641654 0.14896141 -0.0058825626 -0.0071013247 
0.2443991 0.15023844 -0.0080848131 -0.0083029743 
0.24266689 0.15195997 -0.010405273 -0.00972998 
0.24117693 0.15403109 -0.012766359 -0.011510532 
0.23989115 0.15630139 -0.015051598 -0.013830862 
0.23878744 0.15855764 -0.017126556 -0.016875626 
0.2378671 0.16051365 -0.018874492 -0.020738537 
0.23715441 0.16180633 -0.020238811 -0.025337165 
0.23667549 0.16202482 -0.021263115 -0.030354833 
0.23641607 0.16079873 -0.022107901 -0.035222952 
0.23628721 0.15793979 -0.023003112 -0.039173008 
0.23613797 0.15357515 -0.024095758 -0.041389037 
0.23581598 0.14815551 -0.025265671 -0.041245043 
0.23523066 0.14228033 -0.026099191 -0.038513935 
0.23438574 0.13647957 -0.026040696 -0.033356595 
0.23337684 0.13113444 -0.024544928 -0.02616357 
0.23234753 0.12651647 -0.021178281 -0.017498628 
0.2314123 0.12283137 -0.015741239 -0.0081218132 
0.23059303 0.12024344 -0.0084110473 0.0010705429 
0.22981247 0.11887872 0.00018484155 0.0092150631 
0.22894151 0.11874201 0.0090443582 0.015677685 
0.22786262 0.11955618 0.017051733 0.020258456 
0.22654124 0.12070672 0.02337209 0.023317522 
0.22513221 0.1214164 0.027774602 0.025516404 
0.22401891 0.12106311 0.030553797 0.027192572 
0.22366061 0.11946925 0.032111309 0.028077706 
0.22438163 0.11699595 0.032819887 0.027572328 
0.22629617 0.11442616 0.03290624 0.025299701 
0.22918978 0.11264887 0.031933401 0.022180976 
0.23261583 0.11209248 0.029105903 0.019617342 
0.2362315 0.11258252 0.023926269 0.018120806 
0.23984692 0.11365188 0.016657156 0.017554555 
0.24318473 0.11479508 0.0085948072 0.017084177 
0.24572184 0.11579215 0.0013786886 0.01502905 
0.24705893 0.11706126 -0.0041534932 0.010312452 
0.24760616 0.11942389 -0.0080413798 0.0033259215 
0.24848738 0.12353475 -0.010176748 -0.0052836008 
0.25088986 0.12941402 -0.010043296 -0.014685348 
0.25557613 0.13600523 -0.0078810665 -0.024290569 
0.2625893 0.14176056 -0.0048565041 -0.035133343 
0.27135597 0.14533742 -0.0025053463 -0.047351523 
0.2805342 0.14547118 -0.0027425587 -0.058489639 
0.28805672 0.14114727 -0.0074924126 -0.064865165 
0.2919095 0.13243244 -0.016582308 -0.063428312 
0.29146192 0.1210318 -0.026052251 -0.054016361 
0.28765221 0.10959668 -0.031273658 -0.039171859 
0.28194859 0.10058724 -0.030285694 -0.023144872 
0.27604929 0.094832522 -0.025010866 -0.0087351683 
0.27138493 0.092071625 -0.018473399 0.0026999545 
0.26861244 0.092581108 -0.010593738 0.010114816 
0.26771883 0.096393392 -0.00056723738 0.011715007 
0.26845975 0.10250193 0.0097703411 0.0083019478 
0.27030071 0.10957617 0.017525101 0.0027156924 
0.27251028 0.11625717 0.020846384 -0.0026364347 
0.27467156 0.12150424 0.019198399 -0.0056286314 
0.27692571 0.12490256 0.014667142 -0.0053875285 
0.27948451 0.12666149 0.01026906 -0.0020528817 
0.28218065 0.12750847 0.0066950347 0.0033645047 
0.2847488 0.1281291 0.0031166201 0.0082853735 
0.28703547 0.1287221 -0.00048704056 0.010276787 
0.28918908 0.12939239 -0.0028831335 0.0096796265 
0.2913858 0.13004124 -0.003395693 0.00789789 
0.29350524 0.13034521 -0.0028212982 0.0052799813 
0.29543251 0.13018794 -0.002099419 0.0017614058 
0.29704682 0.12945908 -0.0019194342 -0.0026709768 
0.29822595 0.12790178 -0.0028259751 -0.0081587282 
0.2990219 0.12526942 -0.0049893623 -0.014682626 
0.29949538 0.12128999 -0.0081861729 -0.021568977 
0.29946535 0.11572466 -0.01166357 -0.027254979 
0.29853115 0.10860588 -0.014463273 -0.030066208 
0.2961434 0.10045042 -0.01611019 -0.029758885 
0.29200554 0.09212073 -0.016239496 -0.027046153 
0.28644116 0.084301446 -0.014708817 -0.022866234 
0.28014724 0.077261859 -0.012233109 -0.018824844 
0.2739012 0.071060797 -0.0093779819 -0.015313218 
0.26824582 0.065674293 -0.0061981294 -0.011511365 
0.26336406 0.060901268 -0.0031126893 -0.0068757642 
0.25929089 0.056533766 -0.00085460512 -0.0015261837 
0.25605548 0.052658231 0.00043926113 0.0042128115 
0.25372014 0.049405508 0.0012529026 0.009695878 
0.25245873 0.046625327 0.0018938274 0.014095685 
0.25230894 0.044057653 0.002273691 0.016900398 
0.25267298 0.041566108 0.0020102266 0.017699667 
0.25228645 0.039267574 0.00060261535 0.016510335 
0.25020531 0.037503516 -0.0018312874 0.013618083 
0.2466532 0.036445248 -0.0043857374 0.0092094023 
0.24258415 0.035903986 -0.0065357024 0.0040401473 
0.23901717 0.035580375 -0.0082659367 -0.0010147621 
0.2365547 0.035472803 -0.0090532588 -0.0056233604 
0.23507594 0.035986047 -0.0083300683 -0.0094931475 
0.23393575 0.037595622 -0.0062383257 -0.011944835 
0.23270893 0.040308272 -0.0036450933 -0.012075049 
0.2314955 0.043462949 -0.0018882198 -0.0093457315 
0.23052902 0.046022338 -0.0019860945 -0.0047069202 
0.22997508 0.047136773 -0.0036487056 -0.00011843126 
0.22987098 0.046632899 -0.0053345682 0.0029743737 
0.229977 0.045070016 -0.0053389774 0.0033439652 
0.22986245 0.043240379 -0.0026923692 -0.00011370794 
0.22924503 0.041601015 0.0024882096 -0.0068898384 
0.22817943 0.040226773 0.0088586339 -0.01466885 
0.22687634 0.039016132 0.014118573 -0.021240133 
0.22547469 0.037912917 0.015959409 -0.025079415 
0.2239828 0.037055838 0.013332715 -0.024908967 
0.2223773 0.03659933 0.0070612058 -0.020195036 
0.22069611 0.036423947 -0.00051429705 -0.011776985 
0.21904625 0.036185302 -0.00670343 -0.0015025915 
0.21753215 0.035570109 -0.0097958043 0.0081734907 
0.21615974 0.034460527 -0.0095669533 0.015035501 
0.21476529 0.032931083 -0.006953546 0.018033491 
0.21308927 0.031190314 -0.003419394 0.017198341 
0.21096364 0.029442799 -0.00031228943 0.013258211 
0.20842226 0.027773491 0.0015057419 0.007463136 
0.20563998 0.026173828 0.0018460653 0.0011963098 
0.20281958 0.024646926 0.0012245621 -0.0044606446 
0.20013822 0.023241985 0.00055084493 -0.0089671288 
0.19773305 0.021996357 0.00066588525 -0.01230534 
0.19568533 0.020896434 0.0020631379 -0.014728166 
0.19400539 0.019900888 0.0048305687 -0.016544011 
0.19262019 0.018978735 0.0087123089 -0.01803576 
0.19137988 0.018116244 0.013211214 -0.01939008 
0.19010541 0.017277351 0.017683755 -0.020634307 
0.18865054 0.016375362 0.02145093 -0.021598926 
0.1869423 0.015312654 0.023940406 -0.021922201 
0.18497676 0.014040917 0.024797225 -0.021169899 
0.18277837 0.012576459 0.023949912 -0.019062596 
0.18036754 0.010973083 0.021636305 -0.015642389 
0.17776444 0.0092936824 0.018320629 -0.011225364 
0.17501126 0.0076053446 0.014506825 -0.0062013279 
0.17218159 0.0059832484 0.010580771 -0.00089860326 
0.16936466 0.004503755 0.0067716388 0.0043960019 
0.16663195 0.0032304491 0.0031873249 0.0093570015 
0.16401029 0.0022071885 -0.00013319974 0.013579056 
0.16148146 0.0014669333 -0.0031470599 0.016629439 
0.15900379 0.0010486276 -0.0057231512 0.018221851 
0.15653613 0.0009958159 -0.0076018164 0.018410223 
0.15405217 0.001324343 -0.0084627053 0.017566119 
0.15154072 0.002002685 -0.0081288913 0.01608367 
0.14899853 0.0029750729 -0.0067498236 0.014167753 
0.14644174 0.0041831237 -0.0047587767 0.011947403 
0.14391466 0.0055643962 -0.0026463353 0.0095511999 
0.1414551 0.0070443847 -0.00076419815 0.0069534699 
0.13906017 0.0085313044 0.00063398164 0.0039420146 
0.13670613 0.0099428417 0.0013484064 0.00038886964 
0.13438168 0.011254713 0.0014088038 -0.0034823425 
0.13208973 0.012518674 0.0010941253 -0.0071853405 
0.12983715 0.013833073 0.00071346991 -0.010261665 
0.12762872 0.015282569 0.00045292361 -0.012480425 
0.12547011 0.016894782 0.00035590387 -0.013870343 
0.12337761 0.018645553 0.00034776842 -0.014623257 
0.12137865 0.020490886 0.00030022119 -0.014942799 
0.11949541 0.022388839 0.00011902542 -0.0149495 
0.11772555 0.024302581 -0.00020607734 -0.014687975 
0.11603833 0.026198242 -0.00060808069 -0.014173902 
0.11438845 0.028046458 -0.00098073369 -0.013423389 
0.11273509 0.029824494 -0.0012238327 -0.012467171 
0.11105376 0.031515635 -0.0012792233 -0.011359521 
0.1093382 0.033108437 -0.0011448069 -0.010173775 
0.10759546 0.034598128 -0.00086520851 -0.0089811138 
0.10583897 0.035988098 -0.00050780794 -0.0078261778 
0.10408305 0.037288585 -0.0001359213 -0.0067176216 
0.10234032 0.038513089 0.00020987287 -0.0056391719 
0.10062119 0.039675131 0.00051575966 -0.0045716102 
0.098933701 0.040786603 0.00078543217 -0.0035125097 
0.09728291 0.041857128 0.0010253762 -0.0024853343 
0.095670075 0.042893501 0.0012336221 -0.001535256 
0.094092723 0.043899127 0.0013974075 -0.00071481967 
0.092545882 0.044873998 0.0014994054 -6.6437837e-05 
0.091023888 0.045815466 0.0015275491 0.00039084345 
0.089521872 0.046719615 0.0014824537 0.00066569453 
0.088036497 0.047582632 0.0013787731 0.00078971352 
0.086566069 0.048401729 0.0012405073 0.00080671912 
0.08511027 0.049175468 0.0010930969 0.0007607258 
0.083669725 0.049903635 0.00095604203 0.00068668963 
0.082245511 0.050586897 0.00083888187 0.00060628628 
0.080838717 0.051226397 0.00074144203 0.00052872785 
0.079450184 0.051823415 0.000657356 0.00045490695 
0.078080412 0.05237917 0.00057878609 0.00038248342 
0.076729596 0.052894769 0.00050027254 0.00030987461 
0.075397721 0.053371221 0.00042048045 0.00023810053 
0.074084649 0.053809476 0.00034175633 0.0001705428 
0.072790192 0.054210447 0.00026829756 0.00011144212 
0.07151416 0.054575029 0.00020406636 6.4183029e-05 
0.070256391 0.054904124 0.00015135452 3.016743e-05 
0.069016751 0.055198645 0.00011037012 8.5962361e-06 
0.067795127 0.05545951 7.9689239e-05 -2.9770441e-06 
0.066591412 0.055687633 5.7117065e-05 -7.7161034e-06 
0.065405488 0.055883911 4.0490314e-05 -8.6133586e-06 
0.064237225 0.056049224 2.8141233e-05 -7.9176632e-06 
0.063086467 0.056184437 1.8983679e-05 -6.9539314e-06 
0.061953043 0.056290402 1.2352276e-05 -6.2521728e-06 
0.060836759 0.056367957 7.775998e-06 -5.8313519e-06 
0.059737409 0.056417936 4.8192794e-06 -5.4925867e-06 
0.058654774 0.05644116 3.035177e-06 -5.0318382e-06 
0.057588627 0.056438449 2.0016594e-06 -4.3455259e-06 
0.056538737 0.056410614 1.3819154e-06 -3.4475629e-06 
0.055504868 0.05635846 9.6015828e-07 -2.4351356e-06 
0.054486784 0.056282787 6.3507831e-07 -1.4384873e-06 
0.053484252 0.056184389 3.8147714e-07 -5.7758581e-07 
0.052497038 0.05606405 2.0375227e-07 6.4828716e-08 
0.051524914 0.055922547 1.0193559e-07 4.5365472e-07 
0.050567656 0.055760647 5.903829e-08 5.994206e-07 
0.049625045 0.055579107 4.6298577e-08 5.4859573e-07 
0.048696869 0.055378674 3.6296035e-08 3.6992858e-07 
0.047782919 0.055160083 1.3937077e-08 1.3938525e-07 
0.046882997 0.054924055 -2.0234831e-08 -7.4279926e-08 
0.045996908 0.054671299 -5.4512723e-08 -2.2131544e-07 
0.045124466 0.054402512 -7.4630054e-08 -2.7813036e-07 
0.044265488 0.054118375 -7.1809543e-08 -2.4834818e-07 
0.043419801 0.053819557 -4.6856885e-08 -1.5752535e-07 
0.042587235 0.05350671 -9.3004841e-09 -4.2987902e-08 
0.041767629 0.053180473 2.7169553e-08 5.8265143e-08 
0.040960824 0.052841471 5.0451335e-08 1.2001762e-07 
0.040166667 0.052490313 5.4445145e-08 1.3268301e-07 
0.039385012 0.052127592 4.0576003e-08 1.0323786e-07 
0.038615714 0.05175389 1.6260238e-08 5.0011485e-08 
0.037858633 0.051369771 -8.6381709e-09 -5.2401651e-09 
0.037113635 0.050975787 -2.5711097e-08 -4.4925742e-08 
0.036380586 0.050572473 -3.0747579e-08 -6.038558e-08 
0.035659356 0.050160352 -2.4481938e-08 -5.2738519e-08 
0.034949819 0.049739933 -1.1412823e-08 -3.0288223e-08 
0.034251849 0.04931171 2.5239677e-09 -4.0945599e-09 
0.033565323 0.048876165 1.2353564e-08 1.6360914e-08 
0.032890121 0.048433766 1.5629378e-08 2.5936645e-08 
0.032226122 0.047984969 1.2756171e-08 2.4436468e-08 
0.031573209 0.047530215 6.2078044e-09 1.5380096e-08 
0.030931262 0.047069936 -8.332887e-10 3.8316883e-09 
0.030300166 0.046604548 -5.7831697e-09 -5.7156995e-09 
0.029679804 0.046134459 -7.4385704e-09 -1.0685111e-08 
0.029070061 0.045660061 -6.0681301e-09 -1.0739715e-08 
0.028470822 0.045181739 -2.9454137e-09 -7.2611548e-09 
0.02788197 0.044699863 3.6614028e-10 -2.4005306e-09 
0.027303391 0.044214794 2.6500947e-09 1.853911e-09 
0.026734971 0.043726883 3.3814093e-09 4.2845254e-09 
0.026176593 0.043236467 2.7286337e-09 4.62062e-09 
0.025628142 0.042743877 1.3045567e-09 3.3526631e-09 
0.025089504 0.04224943 -1.7521951e-10 1.352427e-09 
0.024560562 0.041753436 -1.1759937e-09 -5.2001327e-10 
0.024041201 0.041256193 -1.4830946e-09 -1.6915552e-09 
0.023531304 0.040757992 -1.1870265e-09 -1.9795139e-09 
0.023030756 0.040259112 -5.6404771e-10 -1.5398267e-09 
0.022539439 0.039759823 7.477242e-11 -7.2098638e-10 
0.022057236 0.039260388 5.0294446e-10 1.0297008e-10 
0.021584032 0.03876106 6.3323043e-10 6.611096e-10 
0.021119708 0.038262083 5.0735686e-10 8.4518009e-10 
0.020664148 0.037763692 2.4363853e-10 6.9982385e-10 
0.020217233 0.037266115 -2.66265e-11 3.6550244e-10 
0.019778846 0.036769571 -2.0845659e-10 5.6263066e-12 
0.01934887 0.03627427 -2.6530817e-10 -2.5384267e-10 
0.018927188 0.035780417 -2.1444722e-10 -3.5569427e-10 
0.01851368 0.035288205 -1.0512096e-10 -3.1118731e-10 
0.018108231 0.034797823 7.8429798e-12 -1.7695879e-10 
0.017710723 0.034309451 8.4566385e-11 -2.3221673e-11 
0.017321038 0.033823261 1.0944548e-10 9.3568677e-11 
0.016939061 0.033339419 8.9358897e-11 1.4559423e-10 
0.016564674 0.032858084 4.4642879e-11 1.3462734e-10 
0.016197762 0.032379406 -1.9263564e-12 8.2771158e-11 
0.015838208 0.031903531 -3.3743131e-11 1.9113819e-11 
0.015485897 0.031430597 -4.4292025e-11 -3.1989279e-11 
0.015140715 0.030960736 -3.639103e-11 -5.7552686e-11 
0.014802547 0.030494072 -1.8402903e-11 -5.6830098e-11 
0.014471281 0.030030725 3.5778848e-13 -3.7880604e-11 
0.014146801 0.029570807 1.3166328e-11 -1.2284408e-11 
0.013828998 0.029114426 1.7444409e-11 9.6865206e-12 
0.013517758 0.028661682 1.4381818e-11 2.200533e-11 
0.013212972 0.028212671 7.3479155e-12 2.3562789e-11 
0.012914529 0.027767483 2.9437653e-14 1.7051673e-11 
0.012622321 0.027326203 -4.9589825e-12 6.9654122e-12 
0.012336238 0.026888909 -6.6466868e-12 -2.3819053e-12 
0.012056175 0.026455675 -5.5179475e-12 -8.1896141e-12 
0.011782024 0.026026571 -2.8731058e-12 -9.6257723e-12 
0.011513681 0.025601661 -1.1150535e-13 -7.5171885e-12 
0.011251041 0.025181003 1.7853289e-12 -3.5962602e-12 
0.010994 0.024764653 2.4547915e-12 3.2563284e-13 
0.010742458 0.024352661 2.0731925e-12 2.9705972e-12 
0.010496313 0.023945073 1.1165559e-12 3.8553326e-12 
0.010255465 0.02354193 9.8527388e-14 3.2162785e-12 
0.010019815 0.02314327 -6.1671489e-13 1.7197547e-12 
0.0097892664 0.022749127 -8.8802404e-13 1.1485025e-13 
0.0095637219 0.02235953 -7.7073105e-13 -1.0389516e-12 
0.0093430867 0.021974504 -4.3275105e-13 -1.5002369e-12 
0.0091272668 0.021594074 -6.0818442e-14 -1.3295905e-12 
0.0089161695 0.021218256 2.0849381e-13 -7.775037e-13 
0.0087097033 0.020847067 3.1818316e-13 -1.4296982e-13 
0.0085077779 0.020480519 2.8389508e-13 3.4062883e-13 
0.0083103042 0.02011862 1.6486407e-13 5.6232742e-13 
0.0081171946 0.019761377 2.9606748e-14 5.3183606e-13 
0.0079283625 0.019408793 -7.0416858e-14 3.3832134e-13 
0.0077437228 0.019060868 -1.1280136e-13 9.5984428e-14 
0.0075631913 0.0187176 -1.0235659e-13 -1.0120862e-13 
0.0073866856 0.018378983 -6.0474817e-14 -2.0369482e-13 
0.0072141241 0.01804501 -1.2237789e-14 -2.0825253e-13 
0.0070454266 0.01771567 2.356505e-14 -1.442936e-13 
0.0068805143 0.017390952 3.8873143e-14 -5.4014953e-14 
