% ./projectseries.x -T0 0 -T1 400 -bd UBbasis/ -Nb 4 -d data/uUB0 -ul uUB0 -o uUB0.asc 
0.33816374 0.16817997 0.063409395 0.046488521 
0.33815853 0.16814037 0.063367222 0.046456894 
0.3381488 0.16810143 0.063323506 0.046432583 
0.33813321 0.16806337 0.063277798 0.046408681 
0.33811058 0.16802593 0.063230022 0.046381608 
0.33807979 0.1679889 0.063179701 0.046350601 
0.33803985 0.16795224 0.063125894 0.046316171 
0.33799016 0.16791594 0.06306759 0.046278493 
0.33793053 0.16788002 0.063003927 0.046236153 
0.33786101 0.1678447 0.062934049 0.046186008 
0.33778157 0.16781038 0.062856785 0.046124291 
0.33769188 0.16777763 0.062770322 0.04604802 
0.33759132 0.16774708 0.062672039 0.045955672 
0.3374791 0.16771936 0.062558611 0.045846892 
0.33735442 0.167695 0.062426388 0.045721789 
0.33721666 0.16767443 0.06227191 0.045580407 
0.33706538 0.16765795 0.062092316 0.045422608 
0.33690037 0.16764568 0.061885498 0.04524813 
0.33672163 0.16763765 0.06164998 0.045056571 
0.33652935 0.16763389 0.06138463 0.044847167 
0.33632386 0.16763449 0.061088358 0.044618493 
0.33610551 0.16763968 0.060759867 0.044368282 
0.33587457 0.16764985 0.060397475 0.044093522 
0.33563108 0.16766549 0.05999901 0.043790816 
0.33537473 0.16768712 0.059561766 0.043456898 
0.33510482 0.16771515 0.059082553 0.043089094 
0.33482028 0.1677497 0.058557863 0.042685559 
0.33451971 0.16779057 0.057984133 0.042245229 
0.33420145 0.16783709 0.057358071 0.041767567 
0.33386365 0.16788819 0.056676923 0.041252216 
0.33350425 0.16794249 0.055938634 0.0406987 
0.33312101 0.16799849 0.055141805 0.040106234 
0.33271153 0.16805478 0.054285513 0.039473651 
0.33227323 0.16811024 0.053369033 0.038799413 
0.33180342 0.16816422 0.052391593 0.038081706 
0.33129934 0.1682167 0.051352238 0.037318584 
0.33075827 0.16826823 0.050249842 0.036508171 
0.33017766 0.16831999 0.049083271 0.035648879 
0.3295552 0.16837365 0.047851611 0.034739605 
0.32888897 0.16843136 0.046554424 0.033779857 
0.32817753 0.16849565 0.045191943 0.032769773 
0.32742001 0.1685695 0.043765183 0.031710071 
0.32661613 0.1686563 0.042275968 0.030601933 
0.32576628 0.16875995 0.040726866 0.029446912 
0.32487153 0.1688849 0.039121081 0.02824689 
0.3239336 0.16903616 0.037462315 0.027004114 
0.32295489 0.16921926 0.035754643 0.025721305 
0.32193852 0.16944008 0.034002419 0.0244018 
0.32088827 0.16970473 0.032210232 0.023049701 
0.31980862 0.1700192 0.03038292 0.021669957 
0.3187047 0.17038912 0.028525633 0.020268349 
0.31758222 0.1708194 0.026643932 0.018851335 
0.31644736 0.17131394 0.024743895 0.017425747 
0.31530666 0.17187531 0.022832201 0.015998359 
0.31416684 0.17250457 0.02091616 0.01457537 
0.31303462 0.17320101 0.01900366 0.013161878 
0.31191654 0.17396201 0.017103028 0.011761424 
0.31081875 0.17478296 0.015222782 0.010375664 
0.30974685 0.17565717 0.013371305 0.0090042105 
0.30870573 0.17657587 0.011556454 0.0076446453 
0.30769937 0.1775282 0.0097851282 0.0062926731 
0.30673076 0.17850134 0.0080628357 0.0049423564 
0.30580169 0.17948057 0.0063932781 0.0035863758 
0.30491259 0.18044948 0.0047779768 0.0022162585 
0.30406234 0.18139012 0.0032159582 0.00082254433 
0.30324797 0.18228315 0.0017035184 -0.00060513064 
0.30246442 0.18310796 0.00023409128 -0.0020780373 
0.30170409 0.18384278 -0.0012017434 -0.0036084535 
0.30095638 0.18446458 -0.0026160636 -0.005209877 
0.30020711 0.184949 -0.0040231606 -0.0068973663 
0.29943792 0.18527009 -0.0054387791 -0.0086879865 
0.29862573 0.18539993 -0.0068789798 -0.01060122 
0.29774244 0.18530813 -0.008358591 -0.012658967 
0.29675523 0.18496134 -0.0098892868 -0.014884384 
0.29562775 0.1843227 -0.011477463 -0.01729836 
0.29432259 0.18335158 -0.013122271 -0.019912174 
0.29280489 0.18200406 -0.014814388 -0.022715308 
0.29104664 0.18023465 -0.016536147 -0.025659129 
0.28903021 0.17800021 -0.018263279 -0.028640228 
0.28674939 0.17526688 -0.019967311 -0.031490475 
0.28420729 0.17202021 -0.021615714 -0.033981543 
0.28141191 0.16827731 -0.023165783 -0.035847892 
0.27837236 0.16409808 -0.024550602 -0.036824831 
0.27509888 0.15959102 -0.025662056 -0.036691909 
0.27160789 0.15491072 -0.026342256 -0.035309777 
0.26793099 0.15024687 -0.026394089 -0.032641149 
0.2641245 0.14580808 -0.02561256 -0.028752686 
0.26027569 0.14180417 -0.023827593 -0.023803137 
0.25650144 0.13842965 -0.020944605 -0.018027187 
0.2529369 0.13584842 -0.016973592 -0.011717197 
0.24971457 0.1341787 -0.012044332 -0.0051925788 
0.24693762 0.13347613 -0.0064069621 0.0012551553 
0.24465562 0.13371346 -0.00041334095 0.0074366176 
0.24285426 0.1347549 0.0055289016 0.013326814 
0.24146855 0.13632731 0.011032558 0.019072289 
0.2404155 0.13799776 0.015818939 0.024922078 
0.23962544 0.13917147 0.019778868 0.031095103 
0.2390478 0.13912094 0.022987663 0.037585991 
0.23862196 0.13707074 0.025695788 0.043879154 
0.2382357 0.13240301 0.028283932 0.048672665 
0.23773988 0.12503334 0.031043783 0.050134541 
0.23705359 0.11576013 0.033757824 0.047093008 
0.23625091 0.1060524 0.035626968 0.040024906 
0.23553365 0.097257935 0.035762381 0.030632505 
0.23514333 0.09002356 0.033570876 0.020861699 
0.23527051 0.084340737 0.028823494 0.012275571 
0.23595699 0.079961625 0.021599889 0.0058112978 
0.23700078 0.076668797 0.01232861 0.0019523011 
0.23794241 0.074231235 0.0020794879 0.00088305249 
0.23820798 0.072419102 -0.0075822698 0.0022055999 
0.23736194 0.071222042 -0.015543405 0.0052586737 
0.23529013 0.070913282 -0.021659541 0.0095511257 
0.23229297 0.071752577 -0.026437785 0.0137662 
0.22911272 0.073905851 -0.030664071 0.015528148 
0.22669417 0.077440575 -0.034572446 0.012998176 
0.22579984 0.082094347 -0.037559826 0.0053132214 
0.22693103 0.087211626 -0.038967015 -0.0076491846 
0.23042479 0.091783116 -0.03872722 -0.024031664 
0.23609863 0.094857018 -0.036885606 -0.040432759 
0.24290308 0.095922016 -0.03317589 -0.054179179 
0.24923174 0.094674955 -0.027898004 -0.064143657 
0.25365352 0.090781642 -0.022269144 -0.069695292 
0.25567168 0.08431467 -0.017451048 -0.069892005 
0.25575387 0.076254735 -0.013549094 -0.064147917 
0.2544954 0.067960748 -0.010250548 -0.053166513 
0.25228125 0.060113147 -0.008069418 -0.038092272 
0.24943219 0.053015262 -0.0074341153 -0.021104783 
0.24592526 0.047514702 -0.0074265906 -0.0055794417 
0.24152938 0.044377894 -0.0073217873 0.0076219995 
0.23616494 0.043893613 -0.0065403419 0.01918524 
0.23009129 0.046061735 -0.0038319973 0.028376692 
0.22394671 0.050450384 0.00020021914 0.032812534 
0.2183579 0.056059179 0.0027490153 0.030651869 
0.21355663 0.061662024 0.0025231443 0.023343245 
0.20948862 0.06637546 0.0010192422 0.014569406 
0.20611786 0.06988651 -1.4032296e-05 0.0069167893 
0.20337322 0.071987194 1.8999202e-05 0.0016233551 
0.20110909 0.072440543 0.0010800728 -0.0010472399 
0.19926228 0.071239902 0.0025536224 -0.0027142338 
0.19774992 0.068454514 0.0034758255 -0.0050419891 
0.19653233 0.064208955 0.0034974163 -0.0083093544 
0.19576242 0.058821226 0.0032023621 -0.012226984 
0.19553277 0.052587124 0.0030659179 -0.016495189 
0.19560833 0.045646366 0.002988179 -0.020778885 
0.19566837 0.038227016 0.0026100732 -0.02535065 
0.19567829 0.03067024 0.0020076466 -0.030593827 
0.19577305 0.023166542 0.001843004 -0.035580491 
0.19595026 0.015721698 0.0025449563 -0.038567114 
0.19605609 0.0083141735 0.0040339475 -0.038311563 
0.1959793 0.0010102385 0.0061026012 -0.034832423 
0.19574889 -0.0060690963 0.0085054661 -0.029168839 
0.19547456 -0.0128342 0.010736805 -0.022386618 
0.19526607 -0.01920754 0.012125992 -0.014937863 
0.19518705 -0.02499757 0.012313844 -0.0068599101 
0.19520142 -0.029839701 0.011599935 0.001742192 
0.19512953 -0.033381983 0.010801426 0.010561109 
0.19465203 -0.035618485 0.010642108 0.018795942 
0.19342657 -0.036942575 0.010987203 0.024496172 
0.19141368 -0.037977239 0.010930769 0.02553993 
0.18904746 -0.039513928 0.010329445 0.022041096 
0.18690641 -0.042032016 0.010424781 0.01651545 
0.18543052 -0.04536511 0.011929279 0.011755283 
0.18473148 -0.048990662 0.013970967 0.010316557 
0.18459776 -0.052466975 0.014683505 0.014312458 
0.18477433 -0.055729091 0.012249441 0.023700664 
0.18507733 -0.058821957 0.0055660717 0.035338537 
0.1852655 -0.061198153 -0.004880814 0.04513834 
0.18498408 -0.061841224 -0.016283457 0.050682597 
0.18394232 -0.060252461 -0.024973135 0.05143133 
0.18215561 -0.05685142 -0.029228023 0.048058195 
0.17992063 -0.052619829 -0.02964392 0.041100584 
0.17744261 -0.048524873 -0.027460215 0.030806176 
0.17471966 -0.045029038 -0.023944584 0.018131572 
0.1717768 -0.042090079 -0.019813791 0.0043852259 
0.16882769 -0.039476079 -0.015029491 -0.0090025022 
0.16622932 -0.037060945 -0.009596487 -0.020395368 
0.16425527 -0.034960464 -0.0042463723 -0.028270015 
0.16289995 -0.033445616 -9.4140674e-05 -0.031741323 
0.1619074 -0.03274332 0.0021127971 -0.030808919 
0.16094402 -0.032917412 0.002282874 -0.026188848 
0.15972959 -0.033918304 0.00074467747 -0.019042259 
0.15809919 -0.035698551 -0.0021000257 -0.010746981 
0.15606326 -0.038210857 -0.0058610427 -0.0025538751 
0.15381445 -0.041311498 -0.010017299 0.0046692409 
0.15161776 -0.044754275 -0.013862733 0.010425166 
0.14965917 -0.048303055 -0.016674649 0.014559108 
0.14794085 -0.051814426 -0.017971219 0.017310964 
0.1462752 -0.055180662 -0.017657808 0.019196198 
0.14442234 -0.058228835 -0.015972982 0.02064136 
0.14229965 -0.060771815 -0.013365033 0.021695411 
0.14003614 -0.062780785 -0.010381423 0.022084585 
0.13782321 -0.064420177 -0.0074384638 0.021488517 
0.13578237 -0.065911996 -0.0046933673 0.019744547 
0.1339478 -0.067416643 -0.002186796 0.016921655 
0.13229495 -0.068993694 3.3827641e-05 0.013311075 
0.13077363 -0.070621957 0.0019149275 0.0093517506 
0.12933664 -0.072249064 0.0034229893 0.0055330064 
0.12795312 -0.073833478 0.0045568895 0.0023004371 
0.12660512 -0.075356865 0.0053471225 -4.0413842e-05 
0.12527766 -0.076817242 0.0058465735 -0.0013857115 
0.1239533 -0.07822115 0.0061133751 -0.001821124 
0.12261347 -0.079578959 0.0061932778 -0.0015498672 
0.12124242 -0.08090008 0.0061129574 -0.00080661133 
0.11983016 -0.08218804 0.0058849815 0.00020196208 
0.11837337 -0.083438755 0.0055174146 0.0013176836 
0.11687425 -0.084642504 0.0050224388 0.002423997 
0.11533851 -0.085787365 0.0044215603 0.0034304354 
0.11377349 -0.086862225 0.0037468536 0.004261967 
0.11218706 -0.087858513 0.0030388069 0.0048574416 
0.11058709 -0.08877097 0.0023420058 0.0051750341 
0.10898119 -0.089598177 0.0016996577 0.005199857 
0.10737661 -0.090342583 0.0011476312 0.0049489936 
0.10578015 -0.091009443 0.00070914281 0.0044706699 
0.10419798 -0.091604979 0.00039156346 0.0038364362 
0.10263525 -0.092134768 0.00018643302 0.0031279788 
0.1010959 -0.09260297 7.2900428e-05 0.002422359 
0.099582481 -0.093012268 2.3708333e-05 0.0017798771 
0.098096326 -0.093364126 1.1881693e-05 0.0012374943 
0.096637644 -0.093659127 1.6036413e-05 0.00080864955 
0.095205719 -0.093897318 2.2908621e-05 0.00048823062 
0.093799127 -0.094078573 2.6926328e-05 0.0002600978 
0.092416005 -0.094202897 2.7750854e-05 0.00010436615 
0.091054315 -0.094270633 2.7230334e-05 2.5192938e-06 
0.089712057 -0.094282579 2.7030205e-05 -6.0237479e-05 
0.088387417 -0.094240014 2.7564438e-05 -9.4837471e-05 
0.087078846 -0.094144661 2.8129482e-05 -0.00010933518 
0.085785083 -0.093998601 2.7673481e-05 -0.00010999907 
0.084505141 -0.093804168 2.5554994e-05 -0.00010195847 
0.083238266 -0.093563837 2.1881509e-05 -8.9350572e-05 
0.081983886 -0.093280134 1.7367229e-05 -7.5220863e-05 
0.080741566 -0.092955567 1.2914468e-05 -6.1473342e-05 
0.079510975 -0.092592575 9.2036296e-06 -4.9025401e-05 
0.078291851 -0.092193498 6.4905244e-06 -3.8138357e-05 
0.077083988 -0.09176057 4.6499664e-06 -2.8782965e-05 
0.075887221 -0.091295911 3.3723296e-06 -2.0899123e-05 
0.074701417 -0.09080153 2.3727752e-06 -1.4488232e-05 
0.073526471 -0.090279328 1.5093399e-06 -9.5704071e-06 
0.072362301 -0.089731104 7.8317906e-07 -6.0928062e-06 
0.071208846 -0.089158562 2.6136145e-07 -3.871643e-06 
0.070066065 -0.088563316 -1.1014191e-08 -2.6059439e-06 
0.068933932 -0.087946895 -5.8166148e-08 -1.9496236e-06 
0.067812438 -0.08731075 3.3681818e-08 -1.5982179e-06 
0.066701584 -0.086656259 1.5911529e-07 -1.3474376e-06 
0.065601385 -0.085984727 2.3923972e-07 -1.1037756e-06 
0.064511865 -0.085297396 2.452158e-07 -8.5487092e-07 
0.063433058 -0.084595446 1.9307825e-07 -6.239348e-07 
0.062365002 -0.08388 1.2000373e-07 -4.3272779e-07 
0.061307745 -0.083152122 5.8880413e-08 -2.8572647e-07 
0.060261337 -0.082412829 2.4057697e-08 -1.7361208e-07 
0.059225833 -0.081663087 1.1634903e-08 -8.5207805e-08 
0.05820129 -0.080903814 9.1574772e-09 -1.652666e-08 
0.057187767 -0.080135887 6.3023573e-09 2.8606519e-08 
0.056185324 -0.079360139 2.9575594e-10 4.4785112e-08 
0.055194021 -0.078577365 -5.3049394e-09 3.2402181e-08 
0.054213917 -0.077788321 -5.6383877e-09 8.5735394e-10 
0.053245068 -0.076993729 8.5472839e-10 -3.4212984e-08 
0.052287531 -0.076194276 1.1083067e-08 -5.7570055e-08 
0.051341359 -0.075390616 1.9385213e-08 -6.0774602e-08 
0.0504066 -0.074583374 2.1104349e-08 -4.4929306e-08 
0.049483301 -0.073773144 1.522453e-08 -1.8769748e-08 
0.048571503 -0.072960492 4.6474222e-09 6.3439719e-09 
0.047671244 -0.07214596 -5.7033855e-09 2.1695343e-08 
0.046782557 -0.071330061 -1.1585072e-08 2.4284946e-08 
0.045905468 -0.070513286 -1.1386514e-08 1.677448e-08 
0.045040001 -0.069696102 -6.4540806e-09 5.0200224e-09 
0.044186173 -0.068878953 7.2086464e-11 -5.1427456e-09 
0.043343995 -0.068062264 5.0458707e-09 -1.0259331e-08 
0.042513474 -0.067246437 6.7302226e-09 -9.9560573e-09 
0.04169461 -0.066431856 5.2435769e-09 -6.1364184e-09 
0.040887397 -0.065618887 2.0491858e-09 -1.4643467e-09 
0.040091825 -0.064807877 -1.0419399e-09 1.9856475e-09 
0.039307877 -0.063999156 -2.7667268e-09 3.3745698e-09 
0.038535531 -0.063193038 -2.8149927e-09 2.9922606e-09 
0.037774759 -0.062389821 -1.6898081e-09 1.7065585e-09 
0.037025528 -0.061589789 -2.4133936e-10 3.741356e-10 
0.036287799 -0.060793211 8.1552027e-10 -5.0786396e-10 
0.035561527 -0.06000034 1.1723026e-09 -8.4588422e-10 
0.034846664 -0.05921142 9.2736251e-10 -7.9512972e-10 
0.034143156 -0.058426678 4.0217631e-10 -5.6575388e-10 
0.033450944 -0.05764633 -8.0333978e-11 -3.0315368e-10 
0.032769963 -0.056870583 -3.3923967e-10 -6.8292586e-11 
0.032100147 -0.056099629 -3.6121811e-10 1.2238718e-10 
0.031441421 -0.05533365 -2.3920141e-10 2.5476791e-10 
0.03079371 -0.054572819 -8.6111997e-11 3.0589388e-10 
0.030156933 -0.053817298 2.4894396e-11 2.612361e-10 
0.029531004 -0.053067238 7.5030692e-11 1.3615563e-10 
0.028915836 -0.052322783 8.1003279e-11 -2.0733987e-11 
0.028311338 -0.051584067 6.7193149e-11 -1.4713695e-10 
0.027717413 -0.050851214 4.8195788e-11 -1.9685959e-10 
0.027133965 -0.050124343 2.7085866e-11 -1.6098321e-10 
0.026560892 -0.049403562 3.0931799e-12 -6.8583349e-11 
0.025998091 -0.048688973 -2.11016e-11 3.154595e-11 
0.025445455 -0.047980669 -3.8304487e-11 9.6246235e-11 
0.024902877 -0.047278738 -4.1378418e-11 1.064809e-10 
0.024370245 -0.046583259 -2.8738996e-11 7.0975337e-11 
0.023847447 -0.045894306 -6.2682835e-12 1.6133902e-11 
0.023334368 -0.045211946 1.5620394e-11 -2.9972575e-11 
0.022830893 -0.044536241 2.7573117e-11 -5.0531695e-11 
0.022336903 -0.043867244 2.5918725e-11 -4.444305e-11 
0.021852281 -0.043205005 1.3773788e-11 -2.2380939e-11 
0.021376905 -0.042549569 -1.5029454e-12 1.4075047e-12 
0.020910655 -0.041900975 -1.2574021e-11 1.6508177e-11 
0.020453409 -0.041259256 -1.5583691e-11 1.9711307e-11 
0.020005043 -0.040624441 -1.1209136e-11 1.4009699e-11 
0.019565434 -0.039996554 -3.2865707e-12 5.0970173e-12 
0.019134459 -0.039375616 3.7539451e-12 -2.1487718e-12 
0.018711993 -0.038761641 7.0944184e-12 -5.5235904e-12 
0.018297912 -0.038154642 6.3870385e-12 -5.404966e-12 
0.01789209 -0.037554625 3.2043445e-12 -3.4827725e-12 
0.017494403 -0.036961595 -2.615014e-13 -1.3931025e-12 
0.017104727 -0.036375552 -2.4032739e-12 2.1007869e-14 
0.016722936 -0.035796492 -2.7517749e-12 7.0379051e-13 
0.016348907 -0.035224408 -1.8105296e-12 9.6286785e-13 
0.015982516 -0.03465929 -4.8226936e-13 1.0539881e-12 
0.015623638 -0.034101126 4.9761506e-13 1.0226051e-12 
0.015272152 -0.0335499 8.4443511e-13 7.9391972e-13 
0.014927935 -0.033005592 6.833652e-13 3.4517035e-13 
0.014590864 -0.032468182 3.2211949e-13 -2.0414448e-13 
0.01426082 -0.031937645 2.2108661e-14 -6.4041687e-13 
0.013937682 -0.031413955 -1.1295412e-13 -7.8511971e-13 
0.01362133 -0.030897083 -1.1808567e-13 -6.0186861e-13 
0.013311647 -0.030386998 -8.0126095e-14 -2.1122381e-13 
0.013008514 -0.029883667 -5.9439761e-14 1.8571663e-13 
0.012711815 -0.029387056 -6.2770675e-14 4.1797734e-13 
0.012421435 -0.028897126 -6.3624533e-14 4.223423e-13 
0.012137259 -0.02841384 -3.8813556e-14 2.5203219e-13 
0.011859175 -0.027937156 9.4230937e-15 2.5703678e-14 
0.011587071 -0.027467033 5.6840596e-14 -1.4394084e-13 
0.011320834 -0.027003427 7.707078e-14 -2.009646e-13 
0.011060357 -0.026546292 6.0326901e-14 -1.5620347e-13 
0.01080553 -0.026095583 1.844591e-14 -6.2474392e-14 
0.010556248 -0.025651251 -2.4503026e-14 2.2966057e-14 
0.010312403 -0.025213247 -4.7526399e-14 6.6385852e-14 
0.010073891 -0.024781522 -4.3602812e-14 6.5178405e-14 
0.0098406105 -0.024356023 -2.0691906e-14 3.787593e-14 
0.0096124587 -0.023936699 5.6226384e-15 7.4514928e-15 
0.0093893355 -0.023523497 2.1920617e-14 -1.1389186e-14 
0.009171142 -0.023116363 2.3235091e-14 -1.5950929e-14 
0.0089577807 -0.022715241 1.3343337e-14 -1.1695517e-14 
0.0087491555 -0.022320076 4.3817505e-16 -5.7244356e-15 
0.0085451717 -0.021930813 -8.2963349e-15 -2.1483497e-15 
0.008345736 -0.021547394 -1.0012294e-14 -1.1742392e-15 
0.0081507566 -0.021169761 -6.2915645e-15 -9.3008412e-16 
0.0079601429 -0.020797857 -9.1673498e-16 1.4383688e-16 
0.0077738059 -0.020431624 2.805096e-15 2.0728745e-15 
0.0075916579 -0.020071003 3.598344e-15 3.701115e-15 
0.0074136129 -0.019715934 2.1888404e-15 3.8634536e-15 
0.0072395858 -0.019366358 2.0721636e-16 2.3255764e-15 
0.0070694934 -0.019022216 -1.0223372e-15 -8.9603929e-17 
0.0069032536 -0.018683446 -1.0991484e-15 -2.1120057e-15 
0.0067407857 -0.018349991 -4.4317634e-16 -2.8253132e-15 
0.0065820106 -0.018021787 2.4760642e-16 -2.1257424e-15 
0.0064268503 -0.017698777 5.0469922e-16 -6.3858751e-16 
0.0062752282 -0.017380898 3.0206454e-16 7.5903465e-16 
0.0061270694 -0.01706809 -8.2227786e-17 1.4432188e-15 
0.0059822998 -0.016760294 -3.3319671e-16 1.2925551e-15 
0.005840847 -0.016457448 -3.1031188e-16 6.2844016e-16 
0.0057026398 -0.016159491 -9.0274824e-17 -8.4238784e-17 
0.0055676084 -0.015866364 1.5051876e-16 -5.0143184e-16 
0.0054356842 -0.015578006 2.5530448e-16 -5.2722034e-16 
0.0053067998 -0.015294357 1.9201219e-16 -2.924984e-16 
0.0051808892 -0.015015356 3.5147567e-17 -7.0540622e-18 
0.0050578875 -0.014740945 -1.0335168e-16 1.7499419e-16 
0.0049377313 -0.014471064 -1.5499213e-16 2.0837828e-16 
0.0048203582 -0.014205653 -1.0948301e-16 1.3775798e-16 
0.0047057071 -0.013944653 -2.0921951e-17 4.7085158e-17 
0.0045937179 -0.013688005 5.1902473e-17 -3.9022396e-18 
0.004484332 -0.013435651 7.5929302e-17 -6.8839068e-18 
0.0043774916 -0.013187532 5.1858247e-17 1.7151634e-17 
0.0042731403 -0.012943592 5.9420509e-18 4.2208007e-17 
0.0041712228 -0.012703771 -2.6189836e-17 4.3356298e-17 
0.0040716848 -0.012468013 -3.3598061e-17 2.8340514e-17 
0.0039744731 -0.012236262 -1.9016971e-17 1.3287683e-17 
0.0038795356 -0.01200846 3.9370599e-21 9.4594908e-18 
0.0037868214 -0.011784552 1.2657984e-17 1.5313203e-17 
0.0036962804 -0.011564483 1.3145057e-17 2.7402706e-17 
0.0036078637 -0.011348196 5.9671891e-18 3.434619e-17 
0.0035215234 -0.011135638 -6.3070956e-19 3.6681232e-17 
0.0034372125 -0.010926754 -3.1686341e-18 3.3214832e-17 
0.003354885 -0.01072149 -2.7896035e-18 2.690133e-17 
0.0032744958 -0.010519792 -5.5483143e-19 2.1728068e-17 
0.0031960011 -0.010321609 1.5269167e-18 2.3406496e-17 
0.0031193575 -0.010126888 -1.3705333e-19 2.5101064e-17 
0.0030445229 -0.0099355761 -2.177684e-18 2.9994868e-17 
0.0029714559 -0.0097476227 -3.8891601e-18 3.2443072e-17 
0.0029001161 -0.0095629768 -4.5824742e-18 3.0229977e-17 
0.0028304639 -0.0093815878 -1.2415778e-18 2.5740516e-17 
0.0027624606 -0.0092034059 4.0747638e-18 2.1144191e-17 
0.0026960682 -0.0090283819 7.5672985e-18 1.8797245e-17 
0.0026312496 -0.0088564667 8.189342e-18 1.6109523e-17 
0.0025679687 -0.0086876121 6.1269015e-18 1.3633034e-17 
0.0025061898 -0.0085217703 1.4664727e-18 1.5396534e-17 
0.0024458784 -0.0083588939 -1.6983863e-18 1.7890132e-17 
0.0023870003 -0.0081989363 -3.1042613e-18 1.9812218e-17 
0.0023295224 -0.0080418512 -3.0469546e-18 2.1779377e-17 
0.0022734121 -0.007887593 -2.1365046e-18 2.6016224e-17 
0.0022186379 -0.0077361164 4.9379855e-19 2.6434278e-17 
0.0021651684 -0.007587377 2.6437326e-18 2.6083984e-17 
0.0021129735 -0.0074413305 3.3124022e-18 2.1889788e-17 
0.0020620232 -0.0072979334 2.9828583e-19 1.7322489e-17 
0.0020122887 -0.0071571428 -8.1675373e-19 1.6260978e-17 
