% ./projectseries.x -T0 0 -T1 400 -bd UBbasis/ -Nb 4 -d data/uUB1 -ul uUB1 -o uUB1.asc 
0.33689423 0.16420927 0.065266952 0.048253556 
0.3364473 0.16401777 0.065301266 0.048170428 
0.33598836 0.16387142 0.065313989 0.048084259 
0.33552345 0.16377546 0.065301473 0.047981395 
0.33505948 0.16373459 0.065262054 0.047849244 
0.334603 0.16375319 0.065194597 0.047683173 
0.33416022 0.16383532 0.065097826 0.047485876 
0.3337375 0.16398431 0.064970742 0.047263933 
0.33334197 0.16420245 0.064813467 0.047023385 
0.33298159 0.16449085 0.064627601 0.046766539 
0.33266486 0.16484977 0.064415616 0.046491817 
0.3324001 0.16527888 0.064179667 0.04619622 
0.33219507 0.16577743 0.063920569 0.045878207 
0.33205665 0.16634402 0.063637534 0.045539058 
0.33199102 0.16697632 0.063328788 0.04518233 
0.33200365 0.16767061 0.062992782 0.044812402 
0.33209939 0.16842138 0.062629482 0.044433384 
0.3322823 0.16922111 0.062241204 0.044049002 
0.33255535 0.17006033 0.061832709 0.043663137 
0.33292025 0.17092787 0.061410575 0.04328031 
0.33337724 0.17181145 0.060982202 0.042905635 
0.33392498 0.17269824 0.060554833 0.042544277 
0.33456052 0.17357542 0.060134901 0.042200776 
0.33527922 0.17443049 0.059727765 0.04187866 
0.33607478 0.17525153 0.059337773 0.041580552 
0.33693924 0.17602717 0.058968464 0.041308674 
0.33786312 0.17674665 0.058622794 0.04106547 
0.33883554 0.17739977 0.058303339 0.040854055 
0.33984456 0.17797698 0.058012484 0.040678304 
0.34087746 0.17846947 0.057752634 0.040542627 
0.34192105 0.17886932 0.057526422 0.040451607 
0.34296198 0.17916964 0.057336857 0.040409665 
0.343987 0.17936466 0.057187334 0.040420885 
0.34498315 0.17944987 0.057081472 0.040488964 
0.34593795 0.17942202 0.057022824 0.040617217 
0.34683959 0.17927913 0.057014564 0.040808554 
0.34767706 0.17902037 0.057059247 0.041065419 
0.34844023 0.17864586 0.057158745 0.041389715 
0.34911996 0.17815646 0.057314337 0.041782758 
0.34970805 0.17755348 0.057526927 0.042245288 
0.35019723 0.17683836 0.057797275 0.042777502 
0.35058101 0.17601248 0.058126187 0.043379052 
0.35085358 0.17507693 0.058514585 0.04404892 
0.35100957 0.17403245 0.058963461 0.044785143 
0.35104389 0.17287929 0.059473722 0.045584359 
0.35095148 0.17161728 0.060045937 0.046441224 
0.35072709 0.17024586 0.060680017 0.047347771 
0.35036502 0.16876422 0.061374848 0.048292807 
0.34985891 0.16717144 0.062127877 0.049261446 
0.34920141 0.1654668 0.062934687 0.050234849 
0.34838407 0.16365018 0.063788572 0.051190231 
0.34739707 0.1617225 0.06468013 0.052101126 
0.34622914 0.15968639 0.065596897 0.052937887 
0.34486759 0.15754691 0.066523002 0.053668354 
0.34329853 0.15531247 0.067438834 0.054258613 
0.34150728 0.15299588 0.068320706 0.054673831 
0.3394791 0.15061543 0.069140529 0.054879208 
0.33720028 0.14819611 0.069865582 0.054841164 
0.33465954 0.1457707 0.070458574 0.054528935 
0.33184971 0.14338056 0.070878242 0.053916682 
0.32876972 0.14107607 0.07108082 0.052986046 
0.32542655 0.13891624 0.071022612 0.051728807 
0.32183725 0.13696768 0.070663653 0.05014903 
0.31803066 0.13530284 0.069972082 0.048263988 
0.31404869 0.13399782 0.068928361 0.046103339 
0.30994716 0.13313003 0.067528172 0.043706402 
0.30579584 0.13277593 0.065782838 0.041117937 
0.30167792 0.13300856 0.063716704 0.038383098 
0.29768868 0.13389446 0.061361893 0.035542319 
0.29393371 0.13548925 0.058752056 0.03262673 
0.29052642 0.13783146 0.055917382 0.029654765 
0.28758475 0.14093483 0.052882994 0.02663103 
0.28522649 0.14477997 0.049671519 0.023549321 
0.28356256 0.14930734 0.046308639 0.020401992 
0.28268807 0.15441368 0.042828575 0.017196573 
0.28267141 0.15995445 0.039276111 0.013976578 
0.28354304 0.1657539 0.035703798 0.010837819 
0.28528617 0.17162312 0.032166743 0.007928661 
0.28783241 0.17738337 0.028719794 0.0054274283 
0.29106505 0.18288863 0.025420066 0.0035023927 
0.29483144 0.18804002 0.022332428 0.0022703109 
0.2989625 0.19278693 0.019531535 0.0017688646 
0.30329448 0.19711566 0.01709536 0.0019483433 
0.30768653 0.20103161 0.015091201 0.0026793419 
0.3120296 0.20454291 0.013560699 0.003771877 
0.31624623 0.20765044 0.012511015 0.0050029717 
0.3202841 0.21034583 0.011914591 0.0061490349 
0.32410764 0.21261538 0.011714444 0.0070166618 
0.32769077 0.2144467 0.011829971 0.0074645667 
0.33101218 0.21583499 0.012160583 0.0074120513 
0.33405304 0.21678693 0.01258819 0.0068342653 
0.33679634 0.21732151 0.012981623 0.0057487022 
0.33922701 0.21746815 0.013205341 0.0041990524 
0.34133256 0.21726309 0.013132118 0.002241585 
0.34310391 0.21674506 0.012656962 -6.3282608e-05 
0.34453626 0.21595132 0.011708493 -0.0026542662 
0.34562974 0.21491481 0.010254937 -0.0054692765 
0.34638937 0.21366263 0.0083037255 -0.0084448617 
0.34682443 0.21221595 0.0058955819 -0.011517214 
0.34694716 0.21059083 0.0030950781 -0.014625787 
0.34677143 0.20879944 -2.0089724e-05 -0.017719256 
0.34631162 0.20685107 -0.0033692617 -0.0207625 
0.34558224 0.20475241 -0.0068772927 -0.023742924 
0.34459815 0.202507 -0.010480963 -0.026674647 
0.34337536 0.20011371 -0.014133429 -0.029599692 
0.34193206 0.19756437 -0.017806949 -0.032585809 
0.34028936 0.19484069 -0.021493962 -0.035720796 
0.33847155 0.19191093 -0.025206282 -0.039103044 
0.3365057 0.18872666 -0.028972034 -0.042827877 
0.33442028 0.18521999 -0.032829948 -0.04696941 
0.33224303 0.18130182 -0.036820937 -0.051558318 
0.32999752 0.17686142 -0.040977387 -0.056557424 
0.32769838 0.17176791 -0.045311423 -0.061839094 
0.32534482 0.16587458 -0.049804393 -0.06717107 
0.32291251 0.15902748 -0.054400658 -0.072220128 
0.32034401 0.15108016 -0.059008495 -0.07658351 
0.3175378 0.14191589 -0.063508041 -0.079848557 
0.3143367 0.13147724 -0.067761066 -0.081650494 
0.31052126 0.11980164 -0.071614724 -0.081659222 
0.30582534 0.10706541 -0.074894676 -0.079448009 
0.30000001 0.09364362 -0.077375851 -0.07434468 
0.29293101 0.08017182 -0.078699314 -0.065511446 
0.28475892 0.067538408 -0.078284416 -0.052388694 
0.27591779 0.056734473 -0.075492721 -0.035310255 
0.2670462 0.048610949 -0.070147411 -0.015821588 
0.25879603 0.043658135 -0.062856361 0.0037554875 
0.25163305 0.041863969 -0.054581693 0.021328879 
0.24574755 0.042764403 -0.045861663 0.035675293 
0.24110648 0.04572746 -0.03654761 0.046332639 
0.23757115 0.050235735 -0.026262289 0.053358765 
0.2349811 0.055946528 -0.015001183 0.057243789 
0.23319398 0.062533173 -0.0033397476 0.058738428 
0.23210048 0.069505717 0.0077520234 0.058520354 
0.23159281 0.076239396 0.017248568 0.056929841 
0.23152654 0.082208061 0.024393168 0.054073073 
0.23174669 0.087203504 0.028947034 0.050154413 
0.23217271 0.091356873 0.031302087 0.045625668 
0.23285729 0.09496418 0.032350747 0.041134363 
0.233943 0.098248546 0.033117314 0.037477243 
0.23556163 0.10119426 0.034362114 0.035498 
0.2377823 0.10355216 0.036402013 0.035693004 
0.24063171 0.10500819 0.03918643 0.037767948 
0.24410569 0.10536131 0.042478435 0.040807874 
0.24812844 0.10458105 0.045995112 0.044041721 
0.25252185 0.10273853 0.049463868 0.047317085 
0.25702526 0.099878886 0.052611458 0.050850182 
0.26134755 0.095949501 0.055133866 0.054661929 
0.26523875 0.090826377 0.056822302 0.058302454 
0.2685709 0.084407806 0.057775891 0.061124689 
0.27136452 0.076709582 0.058383382 0.062795319 
0.27366268 0.067876236 0.059116773 0.063624029 
0.27532315 0.058096537 0.060399263 0.064382004 
0.27599182 0.04749965 0.062489373 0.065592566 
0.27535277 0.036137721 0.065296503 0.067140264 
0.27341909 0.024111779 0.068287065 0.068560972 
0.27056446 0.011669737 0.070496894 0.069265037 
0.26725121 -0.00091083391 0.070583486 0.068534987 
0.26367453 -0.013513248 0.06707171 0.065635632 
0.2597277 -0.026213324 0.059058251 0.059816321 
0.25540019 -0.039078948 0.047225574 0.050745557 
0.25100581 -0.05191998 0.033895502 0.039162853 
0.2468774 -0.064315281 0.021258831 0.026311412 
0.24313643 -0.075820991 0.010050999 0.013024307 
0.23985092 -0.086032242 0.00048530862 -0.00017273576 
0.2371467 -0.094633954 -0.0069177074 -0.012746207 
0.2352194 -0.10142026 -0.011372462 -0.024423891 
0.2343134 -0.10623945 -0.012027013 -0.035443778 
0.2346252 -0.10896018 -0.0080724564 -0.046042844 
0.23618438 -0.10952762 0.0010761482 -0.055739478 
0.23884019 -0.10819381 0.014699429 -0.063494036 
0.24236496 -0.1056785 0.029852339 -0.068603534 
0.24647394 -0.10282637 0.042766647 -0.071841658 
0.25071274 -0.10011238 0.051146378 -0.075784315 
0.25460341 -0.097295715 0.05496335 -0.082216401 
0.2579353 -0.093348038 0.055772603 -0.089467341 
0.26082387 -0.086975274 0.056038901 -0.093711351 
0.26336633 -0.077371226 0.057941786 -0.093784365 
0.26534216 -0.06434865 0.061556816 -0.09111146 
0.26658523 -0.048262216 0.065387041 -0.085031154 
0.26717156 -0.030353329 0.067936145 -0.075160266 
0.26704481 -0.012200158 0.068382371 -0.06377262 
0.2656198 0.0053674999 0.065760387 -0.052107412 
0.26243099 0.022347503 0.05914259 -0.03851535 
0.25794332 0.038895269 0.049460338 -0.022977032 
0.25341379 0.05504306 0.03957017 -0.0088752807 
0.24985109 0.071088268 0.030811232 0.0022593698 
0.24760874 0.08682866 0.023164626 0.010897454 
0.24684892 0.10139211 0.017631531 0.017035906 
0.24774509 0.11417722 0.015641438 0.020368818 
0.25036836 0.1251027 0.018007862 0.021290922 
0.25449638 0.13444267 0.024100192 0.020842406 
0.25957439 0.14279132 0.031433318 0.019823279 
0.2648934 0.15080207 0.036471618 0.017894724 
0.26985294 0.1587819 0.036563049 0.013714698 
0.27418069 0.16669926 0.031642413 0.0068324633 
0.27801811 0.17438238 0.023992392 -0.0011330271 
0.28177507 0.18150111 0.016195899 -0.0079338409 
0.28588106 0.18760624 0.0095017759 -0.012403328 
0.2906378 0.19235148 0.003922176 -0.014497387 
0.29617824 0.19562574 -0.000824103 -0.014616092 
0.30243732 0.19748045 -0.0047389123 -0.013136745 
0.30914264 0.19808802 -0.0075492595 -0.010308254 
0.31590224 0.19777655 -0.0089574107 -0.006426178 
0.32232742 0.1969706 -0.0088472038 -0.0018958422 
0.32812381 0.19605847 -0.0073799085 0.0028357214 
0.33314441 0.19530414 -0.0049624633 0.0073098428 
0.33737993 0.19481587 -0.0020882066 0.01110736 
0.3408951 0.19457133 0.00083236256 0.013920751 
0.34376661 0.1944835 0.0035548582 0.015597731 
0.3460546 0.19445895 0.0059932662 0.016163032 
0.34780052 0.19442391 0.0081494019 0.015810068 
0.34903258 0.19432803 0.010028359 0.014848416 
0.34977119 0.19414087 0.011594781 0.013628754 
0.35003418 0.19384679 0.012786099 0.012478691 
0.34984253 0.19343854 0.013555299 0.0116641 
0.34922457 0.1929103 0.013909437 0.01137429 
0.34821693 0.19225193 0.013927002 0.01172463 
0.34686222 0.1914461 0.013752547 0.01276936 
0.34520471 0.1904687 0.013574899 0.014517424 
0.34328574 0.18929149 0.013598118 0.01694545 
0.34114044 0.1878853 0.014013493 0.020004015 
0.33879678 0.18622227 0.014977712 0.02361618 
0.33627695 0.18427675 0.016598729 0.02767077 
0.33360008 0.1820251 0.018928415 0.032016307 
0.33078433 0.17944545 0.021960179 0.036463352 
0.32784699 0.17651807 0.025630186 0.04080195 
0.3248016 0.17322669 0.029821821 0.044836097 
0.32165305 0.16956035 0.034373993 0.048429656 
0.31839188 0.16551424 0.039093942 0.051549917 
0.31498961 0.16108811 0.043774139 0.054288338 
0.31139631 0.15628074 0.048211251 0.056835366 
0.30754137 0.15108099 0.052224709 0.059392221 
0.30333819 0.14545935 0.05567501 0.06202371 
0.29869423 0.13937064 0.058487171 0.064497507 
0.29352773 0.13278444 0.060681624 0.066208865 
0.28778759 0.12575054 0.062383244 0.06630957 
0.28146596 0.11847101 0.063741213 0.064055816 
0.2745996 0.11131554 0.064751551 0.059154965 
0.26727655 0.10474559 0.065126729 0.051798777 
0.25965819 0.099194553 0.064362337 0.042386758 
0.25198871 0.094983268 0.061957122 0.031306288 
0.2445608 0.092301697 0.057624004 0.018995905 
0.23765666 0.091232748 0.05137811 0.0060965189 
0.23151511 0.0917775 0.043471147 -0.0065837288 
0.22633829 0.093858612 0.034218777 -0.018254482 
0.22230619 0.097308722 0.023862794 -0.028302598 
0.21956802 0.10185934 0.012609535 -0.036428217 
0.21820491 0.10713858 0.00079715438 -0.042772556 
0.21818754 0.11267622 -0.011027697 -0.047872058 
0.21936264 0.11792094 -0.02224357 -0.052347824 
0.22147708 0.12230261 -0.032365877 -0.056559441 
0.22422284 0.12535592 -0.041153192 -0.060525195 
0.22729458 0.126838 -0.04859745 -0.064119038 
0.23047135 0.12675198 -0.054864528 -0.0672651 
0.23370132 0.12528977 -0.060172586 -0.069897807 
0.23710659 0.12276538 -0.064581331 -0.071920625 
0.24085517 0.11952704 -0.067806262 -0.073528733 
0.24499411 0.11577559 -0.06936268 -0.075360173 
0.24941466 0.11134296 -0.069109483 -0.077808717 
0.25393808 0.10566415 -0.06765938 -0.080457254 
0.25833509 0.097990222 -0.066147912 -0.082658683 
0.26224962 0.08759084 -0.065618369 -0.08409558 
0.26524435 0.073980188 -0.066581788 -0.084320862 
0.26702693 0.057479739 -0.068811445 -0.082617053 
0.26759485 0.039616172 -0.071268886 -0.078877602 
0.26710295 0.022366007 -0.072420407 -0.074161053 
0.26566331 0.0068403552 -0.070989417 -0.069632254 
0.26323898 -0.0071793474 -0.06620235 -0.065123244 
0.25966955 -0.020565101 -0.057235485 -0.059170311 
0.25512302 -0.033640597 -0.044199369 -0.050155176 
0.25035364 -0.045768051 -0.029549408 -0.037840308 
0.24579518 -0.056345753 -0.015557196 -0.023581682 
0.24126269 -0.065248509 -0.0029437505 -0.0094994239 
0.23661727 -0.072533327 0.007819082 0.0028549962 
0.23201449 -0.078222281 0.01613411 0.013117256 
0.2277619 -0.082195977 0.021328988 0.022035261 
0.22415436 -0.084242899 0.022615875 0.03095143 
0.22143448 -0.084247724 0.019226673 0.040713442 
0.21985333 -0.082288521 0.010815694 0.050728422 
0.21959534 -0.078594091 -0.0020699269 0.059490024 
0.22068495 -0.07348909 -0.017932432 0.066180553 
0.22306198 -0.067534957 -0.034505357 0.071020838 
0.22648472 -0.061751224 -0.04909407 0.074941547 
0.23050027 -0.05723636 -0.059687034 0.079027126 
0.23480817 -0.054229349 -0.065460658 0.082614985 
0.23928538 -0.05199522 -0.066451416 0.083621735 
0.24360685 -0.04948269 -0.06400132 0.083022328 
0.24704524 -0.04502268 -0.060335981 0.08291169 
0.24895707 -0.036726838 -0.05709958 0.081219356 
0.24961944 -0.024706726 -0.054402251 0.077117546 
0.25009997 -0.01111106 -0.051150013 0.071638758 
0.2503305 0.0023976669 -0.045421712 0.063319899 
0.24910942 0.015723275 -0.036353145 0.051934608 
0.24631566 0.029520194 -0.025725873 0.038575368 
0.24304918 0.044111819 -0.017488167 0.025258233 
0.24011586 0.059578918 -0.013504887 0.012896795 
0.23776961 0.075602358 -0.011923865 0.002773168 
0.23627723 0.091143569 -0.011286971 -0.0026546928 
0.23590067 0.10549213 -0.011231504 -0.0015666871 
0.23704366 0.11822792 -0.011345761 0.0058531612 
0.2401229 0.12845688 -0.0098998574 0.017729415 
0.24539714 0.13543755 -0.0050058117 0.030820537 
0.25244586 0.13870406 0.0052394316 0.044479032 
0.26049461 0.1384777 0.020790962 0.058779166 
0.2691639 0.13598691 0.038609647 0.069782514 
0.27794219 0.13257356 0.055120886 0.075354149 
0.28605749 0.12906167 0.067394653 0.078101185 
0.29304874 0.12542595 0.07404528 0.081099119 
0.29877138 0.12074347 0.075662202 0.085504928 
0.30303247 0.1133691 0.074192454 0.090554175 
0.30554022 0.10139594 0.072097439 0.094003482 
0.30608206 0.08337229 0.071784341 0.094048546 
0.30476743 0.059350898 0.074187253 0.090658418 
0.30228425 0.03195798 0.077055839 0.084078185 
0.29938258 0.0051582868 0.075899342 0.074150015 
0.29597949 -0.019010376 0.068444768 0.060851902 
0.29159815 -0.041209899 0.056536115 0.043347927 
0.28686209 -0.062436664 0.043713536 0.023318366 
0.28316548 -0.082372631 0.032374567 0.0045716175 
0.28122827 -0.10009856 0.022301101 -0.011145532 
0.28130807 -0.11452036 0.014608298 -0.023664311 
0.28336992 -0.1250797 0.011925437 -0.034358945 
0.28709498 -0.13192339 0.016067934 -0.044768417 
0.2919403 -0.13588747 0.026740519 -0.054078971 
0.29723714 -0.13835066 0.040947644 -0.058844225 
0.30235489 -0.14062925 0.053502781 -0.056715901 
0.30655092 -0.14291313 0.060764707 -0.051802535 
0.30909528 -0.14401956 0.064067865 -0.051230949 
0.30963856 -0.14270337 0.067035028 -0.05615642 
0.3082668 -0.13877783 0.071033233 -0.060842894 
0.30534947 -0.13318871 0.075163571 -0.060412848 
0.30112769 -0.12713974 0.078497075 -0.056285652 
0.29561951 -0.12124965 0.080211908 -0.051488432 
0.2889643 -0.11544708 0.079893695 -0.046085248 
0.28165216 -0.10952405 0.077680113 -0.038676111 
0.27427749 -0.10363957 0.073822381 -0.029628354 
0.26717997 -0.098202295 0.068516723 -0.02087346 
0.26045368 -0.093484996 0.062209491 -0.013377924 
0.25409138 -0.089591455 0.055737532 -0.0066873608 
0.24800935 -0.086641399 0.04969089 -0.00024870478 
0.24208994 -0.08490437 0.04376721 0.0059050439 
0.23629805 -0.084892918 0.037182747 0.011317085 
0.23074402 -0.087236741 0.029650494 0.015504632 
0.22563358 -0.092316546 0.021626935 0.018198571 
0.22118936 -0.099970068 0.013803387 0.019320262 
0.21761096 -0.10950854 0.0067393918 0.018892681 
0.21506989 -0.12000364 0.0009215724 0.017051504 
0.21370587 -0.13060432 -0.0031881492 0.014157922 
0.21360436 -0.14068869 -0.0053704647 0.01084946 
0.21476045 -0.14986219 -0.0058287103 0.0078245813 
0.21705944 -0.1579224 -0.00507665 0.0054580972 
0.2203056 -0.16484701 -0.0037080054 0.0036939289 
0.22428031 -0.17076028 -0.0022625121 0.0023293339 
0.22878595 -0.17584907 -0.0011785474 0.001303819 
0.23365901 -0.1802849 -0.0007270023 0.00072717046 
0.23876197 -0.18420259 -0.00094303543 0.00074014329 
0.24397026 -0.18771493 -0.0016574362 0.0013900949 
0.24916986 -0.19092107 -0.0026215933 0.002593946 
0.25426468 -0.1938949 -0.0036319217 0.00417437 
0.2591792 -0.19666999 -0.0045960139 0.0059310356 
0.26385163 -0.1992423 -0.0055342365 0.0077089205 
0.26822845 -0.20158932 -0.0065339783 0.0094366131 
0.27226685 -0.20368752 -0.0076874018 0.011125994 
0.27593995 -0.20551831 -0.0090453379 0.012843991 
0.27923756 -0.2070662 -0.010605538 0.01467796 
0.28216198 -0.20831631 -0.012331928 0.016712265 
0.28472333 -0.20925346 -0.014187327 0.019020072 
0.2869375 -0.20986096 -0.016161546 0.021665702 
0.28882628 -0.21011757 -0.018284569 0.024712396 
0.2904177 -0.20999276 -0.020623207 0.028231502 
0.29174583 -0.20944175 -0.023266215 0.032308901 
0.29285011 -0.20840108 -0.026305754 0.037044503 
0.29377467 -0.20678391 -0.029821851 0.042542146 
0.29456738 -0.20447413 -0.033872525 0.048889352 
0.29527831 -0.20131802 -0.038487933 0.056127712 
0.29595597 -0.19711372 -0.043664337 0.064214701 
0.29663936 -0.19159989 -0.049354255 0.072977884 
0.29734285 -0.18444758 -0.055452819 0.082065445 
0.29803132 -0.17526261 -0.061786324 0.090905809 
0.29858391 -0.16361091 -0.068115805 0.098702004 
0.29874874 -0.14908446 -0.074171355 0.10448228 
0.29810039 -0.13142762 -0.079721379 0.10717239 
0.29604074 -0.11074036 -0.084635801 0.10559054 
0.29192596 -0.087752968 -0.088791589 0.098359752 
0.28538441 -0.064063608 -0.091596952 0.083976159 
0.27670988 -0.042042982 -0.091463372 0.06146671 
0.26697839 -0.024174818 -0.086601292 0.031960539 
0.25766354 -0.012189653 -0.07719401 -0.00016437818 
0.25001455 -0.0064480942 -0.06576882 -0.029414844 
0.24464309 -0.0058253891 -0.054651407 -0.052562012 
0.24154176 -0.0086179176 -0.044105143 -0.068616449 
0.24041153 -0.01359064 -0.033325759 -0.077574634 
0.24081804 -0.020117425 -0.022008738 -0.080324162 
0.24219182 -0.0276193 -0.010619218 -0.078365467 
0.24397439 -0.035112274 -0.00040868625 -0.073018474 
0.24568861 -0.041673803 0.0069620962 -0.065312401 
0.24693852 -0.047346106 0.010364503 -0.05665222 
0.24760339 -0.053124204 0.010000896 -0.04867774 
0.24805356 -0.060097753 0.0076280389 -0.042057914 
0.24894038 -0.068411722 0.005314058 -0.03668759 
0.25061131 -0.076867282 0.004479985 -0.03379774 
