% ./projectseries.x -T0 0 -T1 400 -bd UBbasis/ -Nb 4 -d data/uUB3 -ul uUB3 -o uUB3.asc 
0.3381528 0.16819833 0.063381052 0.046537816 
0.33814612 0.16817083 0.06334058 0.04654145 
0.33814372 0.16813929 0.063323832 0.046533863 
0.33814232 0.16810665 0.063323168 0.046524281 
0.33814035 0.16807611 0.063331077 0.046519907 
0.33813808 0.16804981 0.063342592 0.046520462 
0.33813669 0.16802844 0.063355578 0.046521639 
0.33813722 0.16801182 0.063369478 0.046518335 
0.33813975 0.16799962 0.06338381 0.04650711 
0.33814313 0.16799167 0.063397469 0.046487461 
0.33814538 0.16798789 0.063408933 0.046461298 
0.33814439 0.16798812 0.063416747 0.046431253 
0.33813854 0.16799214 0.063419856 0.046399353 
0.33812697 0.16799966 0.063417746 0.04636694 
0.33810963 0.16801052 0.063410422 0.046335322 
0.3380872 0.16802465 0.063398313 0.046306089 
0.33806102 0.16804218 0.063382153 0.046280583 
0.33803292 0.16806344 0.06336291 0.046258984 
0.33800501 0.16808896 0.063341717 0.046239857 
0.3379794 0.16811949 0.063319698 0.046220558 
0.33795791 0.1681559 0.063297616 0.046198256 
0.337942 0.16819919 0.063275476 0.046170986 
0.33793273 0.16825034 0.06325234 0.046138288 
0.33793093 0.16831013 0.063226565 0.046101276 
0.33793733 0.16837889 0.063196412 0.046062204 
0.3379527 0.16845634 0.063160811 0.046023767 
0.33797789 0.16854144 0.063119924 0.045988415 
0.3380138 0.16863252 0.06307527 0.045957888 
0.33806131 0.16872744 0.063029381 0.045933079 
0.33812107 0.16882388 0.062985125 0.04591416 
0.33819342 0.16891961 0.062944963 0.045900812 
0.33827831 0.16901267 0.062910401 0.04589246 
0.33837519 0.1691014 0.062881798 0.045888462 
0.33848311 0.16918439 0.062858547 0.045888285 
0.33860067 0.16926026 0.062839531 0.045891683 
0.33872616 0.16932753 0.062823653 0.045898878 
0.33885756 0.16938439 0.06281029 0.045910654 
0.33899263 0.16942876 0.062799524 0.045928315 
0.339129 0.16945826 0.062792155 0.045953451 
0.3392642 0.16947049 0.062789501 0.045987562 
0.33939575 0.16946316 0.062793088 0.046031642 
0.33952117 0.16943433 0.06280431 0.046085856 
0.33963803 0.16938258 0.06282413 0.046149406 
0.33974394 0.16930709 0.062852882 0.046220642 
0.33983651 0.16920757 0.062890203 0.046297346 
0.33991338 0.16908427 0.06293509 0.046377124 
0.33997223 0.16893779 0.062986078 0.04645777 
0.34001073 0.16876898 0.063041484 0.046537506 
0.34002666 0.16857883 0.063099668 0.046615073 
0.34001789 0.16836842 0.063159238 0.04668965 
0.3399825 0.16813895 0.063219147 0.046760653 
0.33991878 0.16789176 0.06327866 0.046827478 
0.33982533 0.16762849 0.0633372 0.046889238 
0.33970114 0.16735114 0.063394112 0.046944562 
0.33954558 0.1670622 0.063448433 0.046991498 
0.33935843 0.16676468 0.063498708 0.047027549 
0.33913994 0.16646215 0.063542915 0.047049833 
0.33889074 0.16615861 0.063578519 0.047055349 
0.33861191 0.16585849 0.063602631 0.047041275 
0.33830489 0.16556645 0.063612241 0.047005248 
0.33797152 0.16528729 0.063604476 0.046945543 
0.33761405 0.16502588 0.063576829 0.046861123 
0.33723518 0.16478703 0.063527317 0.046751561 
0.3368381 0.16457551 0.063454541 0.046616862 
0.33642655 0.16439603 0.063357656 0.046457256 
0.33600485 0.16425322 0.063236259 0.046273017 
0.33557791 0.16415168 0.063090228 0.046064368 
0.33515123 0.1640959 0.062919562 0.045831485 
0.33473083 0.16409022 0.062724258 0.045574599 
0.33432316 0.16413866 0.06250426 0.045294159 
0.33393502 0.1642448 0.062259489 0.044991002 
0.33357339 0.16441153 0.06198995 0.044666501 
0.33324534 0.16464093 0.061695882 0.044322636 
0.33295786 0.16493402 0.061377928 0.043961992 
0.33271776 0.16529067 0.061037273 0.043587677 
0.33253154 0.16570955 0.060675739 0.043203196 
0.33240531 0.16618803 0.060295808 0.042812295 
0.33234458 0.16672227 0.059900592 0.042418834 
0.33235421 0.16730724 0.059493754 0.042026678 
0.33243823 0.16793682 0.0590794 0.041639645 
0.3325997 0.16860386 0.058661968 0.041261491 
0.33284056 0.16930028 0.058246121 0.04089593 
0.33316151 0.17001721 0.057836655 0.040546665 
0.3335619 0.17074508 0.057438411 0.040217409 
0.33403966 0.17147377 0.0570562 0.039911894 
0.33459131 0.17219279 0.056694724 0.039633842 
0.33521196 0.17289148 0.056358493 0.039386922 
0.33589541 0.17355918 0.056051745 0.039174679 
0.33663426 0.17418552 0.055778373 0.039000467 
0.33742005 0.17476053 0.055541858 0.038867387 
0.33824347 0.17527492 0.05534524 0.038778249 
0.33909449 0.17572018 0.055191107 0.038735569 
0.33996259 0.1760887 0.055081622 0.038741584 
0.34083692 0.17637387 0.055018573 0.038798315 
0.34170649 0.17657008 0.055003457 0.038907628 
0.34256035 0.17667274 0.05503757 0.039071314 
0.34338775 0.17667821 0.055122101 0.039291147 
0.34417824 0.17658374 0.055258223 0.039568918 
0.3449218 0.17638739 0.055447161 0.039906419 
0.34560894 0.1760879 0.05569023 0.040305367 
0.34623071 0.17568457 0.05598883 0.040767269 
0.34677876 0.17517715 0.056344401 0.041293217 
0.34724526 0.17456574 0.056758327 0.041883617 
0.34762292 0.17385064 0.05723179 0.042537881 
0.34790486 0.17303232 0.057765587 0.04325408 
0.34808452 0.17211135 0.058359915 0.044028597 
0.34815551 0.17108832 0.059014134 0.0448558 
0.3481115 0.16996394 0.059726523 0.045727751 
0.34794597 0.16873902 0.060494042 0.046633986 
0.34765211 0.16741461 0.061312104 0.047561375 
0.34722261 0.16599217 0.062174367 0.048494066 
0.34664949 0.16447382 0.063072534 0.049413511 
0.34592402 0.16286262 0.063996165 0.050298573 
0.34503665 0.16116301 0.064932478 0.051125704 
0.34397707 0.15938129 0.065866123 0.051869181 
0.3427344 0.15752621 0.066778933 0.052501443 
0.34129751 0.15560966 0.067649648 0.052993547 
0.33965558 0.15364745 0.068453648 0.053315828 
0.33779886 0.15166005 0.069162798 0.053438852 
0.33571967 0.14967344 0.06974551 0.05333474 
0.33341353 0.14771965 0.070167225 0.05297891 
0.33088062 0.14583722 0.070391501 0.052352141 
0.32812715 0.14407117 0.070381831 0.051442759 
0.32516691 0.14247254 0.070104208 0.050248532 
0.32202259 0.14109741 0.069530187 0.048777789 
0.3187269 0.14000547 0.068639932 0.047049323 
0.31532338 0.13925821 0.067424582 0.045090819 
0.31186664 0.13891683 0.065887211 0.042935911 
0.30842214 0.13903999 0.064041996 0.04062029 
0.30506535 0.13968115 0.061911659 0.038177544 
0.30188035 0.14088542 0.059523837 0.035635525 
0.29895785 0.14268563 0.05690744 0.033013996 
0.29639246 0.1450977 0.054090097 0.030324318 
0.29427912 0.1481155 0.051097431 0.02757188 
0.29270824 0.15170611 0.047954217 0.024761776 
0.29175953 0.15580659 0.04468682 0.02190748 
0.29149465 0.16032381 0.041325902 0.019040802 
0.29194948 0.16513868 0.037908476 0.016219641 
0.29312723 0.17011517 0.034478817 0.01352934 
0.29499433 0.17511345 0.031088231 0.011075154 
0.29748073 0.18000454 0.027793997 0.0089669667 
0.30048561 0.18468286 0.024657764 0.0073004495 
0.30388813 0.18907337 0.021743178 0.0061392704 
0.3075609 0.19313136 0.019111991 0.0055015585 
0.31138319 0.19683571 0.016818203 0.0053529712 
0.31525051 0.20017869 0.014901295 0.0056086848 
0.31907928 0.20315623 0.013380917 0.0061456024 
0.32280656 0.20576194 0.012254997 0.0068230015 
0.32638669 0.20798571 0.011501275 0.0075063122 
0.32978673 0.20981639 0.011080486 0.0080872663 
0.33298196 0.2112461 0.010939415 0.0084953444 
0.33595231 0.21227435 0.011013529 0.0086992233 
0.33867981 0.2129104 0.011230315 0.0087006464 
0.34114713 0.21317325 0.011514587 0.0085250248 
0.34333727 0.21308966 0.011795855 0.0082126454 
0.34523403 0.2126907 0.012016447 0.0078125456 
0.34682299 0.21200767 0.012138441 0.0073792824 
0.34809264 0.21106831 0.01214771 0.0069717358 
0.34903508 0.20989386 0.012054331 0.006652708 
0.34964651 0.20849726 0.011889578 0.0064880994 
0.34992717 0.20688266 0.011700499 0.0065446599 
0.3498812 0.20504569 0.011543424 0.0068857929 
0.34951641 0.2029742 0.01147764 0.007565625 
0.34884413 0.2006488 0.011560084 0.0086223632 
0.34787902 0.19804284 0.011841221 0.010072466 
0.34663882 0.19512158 0.012361725 0.011907039 
0.34514379 0.19184051 0.013149213 0.014091133 
0.34341558 0.18814322 0.014214523 0.016565672 
0.34147541 0.18395926 0.015547846 0.019251064 
0.33934144 0.17920255 0.017116249 0.022051372 
0.33702517 0.17377122 0.018864935 0.024857861 
0.33452681 0.16754993 0.020724116 0.027550419 
0.33182976 0.16041625 0.022620627 0.029995219 
0.32889375 0.15225332 0.024488807 0.032038625 
0.32564602 0.14297167 0.026272913 0.033501682 
0.32196998 0.13254342 0.02792134 0.0341823 
0.31769496 0.12105072 0.029390761 0.033864603 
0.31260137 0.10874252 0.030674642 0.032325437 
0.30646671 0.096078266 0.031808681 0.029355138 
0.2991713 0.083723767 0.032762854 0.024854992 
0.29084209 0.07246395 0.03326894 0.019000071 
0.28194681 0.063028907 0.032834922 0.012278718 
0.27320332 0.055920179 0.031068657 0.0052912208 
0.2652727 0.051364573 0.028011295 -0.0014587759 
0.25846793 0.049386452 0.024076564 -0.0075814084 
0.25274538 0.049873861 0.019683003 -0.01277663 
0.24791686 0.052581329 0.015063969 -0.016829833 
0.24383723 0.057111156 0.010375736 -0.019579463 
0.24045997 0.062926048 0.0057934719 -0.020970486 
0.23780437 0.069422828 0.0014933938 -0.021162849 
0.23589535 0.076052327 -0.0023133354 -0.020487007 
0.23470885 0.082421558 -0.0053325972 -0.019268065 
0.23414945 0.088326315 -0.0073109895 -0.017696956 
0.2340742 0.093699314 -0.0082253193 -0.015842177 
0.23436334 0.098507914 -0.0083192623 -0.013793234 
0.23500046 0.10267645 -0.0080072751 -0.011795069 
0.23607998 0.10608153 -0.0077433663 -0.010230143 
0.23772915 0.10859498 -0.007883592 -0.0094523829 
0.24002591 0.1101196 -0.0085924809 -0.0095862862 
0.24296765 0.11060245 -0.009837119 -0.010475403 
0.24647927 0.1100358 -0.011457501 -0.011844932 
0.25043394 0.10845225 -0.013285535 -0.013475335 
0.25466962 0.10591439 -0.015205763 -0.015238797 
0.25899872 0.10248625 -0.017103372 -0.017048396 
0.26321594 0.098186012 -0.018833575 -0.018807395 
0.26711045 0.092964451 -0.020275757 -0.020384453 
0.27049723 0.086754605 -0.021375425 -0.021569595 
0.27325825 0.079567699 -0.022123088 -0.022096752 
0.27534948 0.071548438 -0.022513067 -0.021869174 
0.27674859 0.062921011 -0.022514116 -0.021171867 
0.27737032 0.053830047 -0.022041828 -0.02053051 
0.2770348 0.044200301 -0.020986894 -0.020313503 
0.27557428 0.03379833 -0.019405605 -0.020485268 
0.27301951 0.022483283 -0.01769974 -0.020676637 
0.26965762 0.010380055 -0.01645275 -0.020418304 
0.26585722 -0.0022319515 -0.015975337 -0.019415407 
0.26184176 -0.01517692 -0.015924816 -0.017589582 
0.25762623 -0.028345331 -0.015461695 -0.014679898 
0.25305026 -0.041299593 -0.013888503 -0.010216205 
0.24796006 -0.053304703 -0.010967191 -0.0045095184 
0.24254867 -0.063827945 -0.0070907035 0.0013330928 
0.23736412 -0.072630035 -0.0031609919 0.0064399677 
0.23299386 -0.079523237 -9.467597e-05 0.010480862 
0.22984306 -0.084296883 0.0013588015 0.013567407 
0.22807279 -0.086777271 0.00059098233 0.016256611 
0.22761571 -0.08690913 -0.002576189 0.019219147 
0.22825087 -0.084882029 -0.0073507795 0.022278136 
0.2296552 -0.081108868 -0.012274498 0.024412505 
0.23143489 -0.076036564 -0.016431687 0.025298103 
0.23325146 -0.070056814 -0.019848982 0.02582678 
0.23487842 -0.063515847 -0.022661879 0.026840552 
0.23614727 -0.05656955 -0.02498654 0.028313338 
0.23691235 -0.049199073 -0.027094547 0.028817946 
0.23688683 -0.041727647 -0.029099406 0.026814805 
0.23563776 -0.034798853 -0.030608797 0.023463027 
0.23288672 -0.028607253 -0.030975601 0.020328171 
0.2287253 -0.02284396 -0.029797304 0.017414652 
0.22366824 -0.017116934 -0.026972724 0.014260252 
0.21838516 -0.011212881 -0.022680306 0.010431654 
0.21346438 -0.0050402577 -0.017800221 0.0063880597 
0.20930732 0.0015547423 -0.013383714 0.0032777011 
0.20593298 0.0086205581 -0.0096551113 0.0016085171 
0.20301995 0.015819172 -0.006269495 0.00069454276 
0.20024398 0.022622602 -0.0032155354 -0.00056298272 
0.19741353 0.02875539 -0.00073562919 -0.0027016226 
0.1945112 0.03426227 0.0011467269 -0.0054050852 
0.1916736 0.039220506 0.002528062 -0.0078749967 
0.18900508 0.043506242 0.0033224244 -0.0093710415 
0.18645784 0.046938014 0.0032853289 -0.0095484362 
0.18391748 0.049451746 0.0023261578 -0.0083450457 
0.18133907 0.051021638 0.00074979318 -0.0058185135 
0.17876995 0.051564906 -0.00084718316 -0.0021604605 
0.17626819 0.051013341 -0.0018671436 0.0022175793 
0.17382583 0.04946464 -0.0019979493 0.0066740221 
0.17135846 0.047208786 -0.0014149267 0.010516965 
0.16874861 0.044567709 -0.00070122681 0.013266254 
0.16590866 0.041713787 -0.00042391085 0.014661058 
0.16284863 0.038653917 -0.00075955611 0.014463004 
0.15969569 0.035351646 -0.0014499417 0.012528867 
0.15661269 0.031810932 -0.0020442096 0.0091057577 
0.15369193 0.028095481 -0.0023065775 0.0047847931 
0.1509223 0.024273267 -0.0023860699 0.00016368468 
0.14824338 0.02030975 -0.0026124325 -0.0043823171 
0.14563128 0.016035322 -0.0032646018 -0.0085894854 
0.14314536 0.011263027 -0.0045151089 -0.012031747 
0.14090074 0.0059642925 -0.0064368823 -0.014146252 
0.13898949 0.00031016049 -0.008942318 -0.014633299 
0.13742738 -0.005438436 -0.011623411 -0.013653401 
0.13615859 -0.01105623 -0.013725391 -0.011605748 
0.13509495 -0.016419006 -0.014419753 -0.0088655693 
0.13416288 -0.021499245 -0.013190388 -0.0057700669 
0.13332613 -0.02631966 -0.010070675 -0.0027475455 
0.13256716 -0.030918022 -0.005647475 -0.00030495064 
0.13185323 -0.035337811 -0.00087727259 0.001172031 
0.13112712 -0.039619931 0.003229693 0.0015861472 
0.1303345 -0.043791914 0.0059556937 0.0011220667 
0.12946068 -0.047864811 0.0070901307 0.0001329353 
0.12853684 -0.05183713 0.0069102919 -0.00098280344 
0.12760966 -0.055700919 0.0059812002 -0.0018969971 
0.1267083 -0.059446408 0.0049023037 -0.0024319031 
0.12583841 -0.06306552 0.0041006706 -0.0025618691 
0.12499621 -0.066555888 0.0037350449 -0.0023606675 
0.12418024 -0.069923038 0.0037288551 -0.0019483183 
0.12339183 -0.073178145 0.0038814603 -0.0014495159 
0.12263186 -0.076332636 0.0039837171 -0.00095858915 
0.12190047 -0.079392701 0.0038962104 -0.00052162597 
0.12119873 -0.082355608 0.0035785656 -0.00014158974 
0.12052817 -0.085208945 0.0030733861 0.000203508 
0.11988823 -0.087933929 0.0024642101 0.0005405375 
0.11927444 -0.090511842 0.0018344122 0.00088519456 
0.11867881 -0.092929838 0.0012435597 0.0012344007 
0.11809203 -0.095182793 0.00072227459 0.0015692911 
0.11750522 -0.097271436 0.00027888585 0.0018653894 
0.11691094 -0.099199553 -9.0052714e-05 0.002103249 
0.1163034 -0.10097248 -0.00039161874 0.0022745075 
0.1156785 -0.10259683 -0.00063317339 0.002382039 
0.11503378 -0.10408018 -0.0008223354 0.0024357371 
0.11436803 -0.10543016 -0.00096748177 0.0024468054 
0.11368072 -0.10665361 -0.001077098 0.0024233435 
0.11297149 -0.10775621 -0.0011580555 0.0023687795 
0.11223996 -0.10874298 -0.0012140044 0.0022830833 
0.11148572 -0.10961868 -0.0012450805 0.0021655206 
0.11070847 -0.11038806 -0.001249262 0.0020173258 
0.10990804 -0.11105584 -0.0012246907 0.001843066 
0.10908437 -0.11162664 -0.0011717666 0.0016503031 
0.10823754 -0.11210491 -0.0010940494 0.0014480035 
0.10736777 -0.11249498 -0.00099769897 0.0012446003 
0.10647545 -0.11280104 -0.00088992034 0.0010465738 
0.10556109 -0.11302713 -0.00077726043 0.00085800086 
0.10462531 -0.11317714 -0.00066451089 0.00068100294 
0.10366884 -0.11325481 -0.00055453598 0.0005166534 
0.10269245 -0.11326369 -0.00044885024 0.00036581618 
0.10169696 -0.11320719 -0.00034846941 0.00022956201 
0.10068325 -0.1130886 -0.00025455256 0.00010909853 
0.09965222 -0.11291106 -0.00016858005 5.4000463e-06 
0.098604807 -0.1126776 -9.2106054e-05 -8.1178244e-05 
0.097541975 -0.11239111 -2.6327847e-05 -0.00015107863 
0.096464711 -0.11205439 2.8252149e-05 -0.00020544436 
0.095374021 -0.1116701 7.1905943e-05 -0.00024583252 
0.094270923 -0.11124082 0.00010550187 -0.00027389556 
0.093156442 -0.11076901 0.00013019526 -0.00029116947 
0.092031605 -0.11025702 0.00014714733 -0.00029902241 
0.090897437 -0.10970712 0.00015737838 -0.00029872659 
0.089754953 -0.10912148 0.00016176906 -0.00029156463 
0.08860516 -0.10850219 0.00016114831 -0.00027888798 
0.08744905 -0.10785123 0.00015638125 -0.00026209053 
0.086287599 -0.10717052 0.0001483957 -0.00024251575 
0.085121764 -0.1064619 0.00013813622 -0.00022134837 
0.08395248 -0.10572712 0.00012647762 -0.00019954192 
0.082780659 -0.10496787 0.00011414652 -0.00017780704 
0.081607189 -0.10418577 0.00010168601 -0.00015665264 
0.080432932 -0.10338237 8.9470997e-05 -0.00013644984 
0.079258723 -0.10255915 7.7755832e-05 -0.00011748613 
0.07808537 -0.10171753 6.6725626e-05 -9.9991443e-05 
0.076913649 -0.10085887 5.6528766e-05 -8.4136509e-05 
0.075744311 -0.099984484 4.728393e-05 -7.0018562e-05 
0.074578076 -0.09909561 3.9069759e-05 -5.76517e-05 
0.073415634 -0.098193444 3.1912113e-05 -4.6972567e-05 
0.072257645 -0.097279129 2.5781115e-05 -3.7861137e-05 
0.071104741 -0.096353755 2.0601749e-05 -3.0168223e-05 
0.069957522 -0.095418368 1.6273479e-05 -2.3739359e-05 
0.068816562 -0.094473964 1.2690359e-05 -1.8428427e-05 
0.067682404 -0.093521498 9.7544782e-06 -1.4100543e-05 
0.066555562 -0.092561879 7.3802486e-06 -1.0628594e-05 
0.065436522 -0.091595978 5.4917987e-06 -7.8892361e-06 
0.064325745 -0.090624624 4.0181429e-06 -5.762282e-06 
0.063223662 -0.08964861 2.8902441e-06 -4.1340991e-06 
0.062130679 -0.08866869 2.0416161e-06 -2.902869e-06 
0.061047177 -0.087685586 1.411521e-06 -1.982763e-06 
0.05997351 -0.086699986 9.4846402e-07 -1.3050736e-06 
0.058910009 -0.085712544 6.119536e-07 -8.1619925e-07 
0.057856983 -0.084723884 3.7180353e-07 -4.7388285e-07 
0.056814714 -0.083734601 2.0564486e-07 -2.4355671e-07 
0.055783466 -0.082745262 9.6028687e-08 -9.6063777e-08 
0.054763479 -0.081756404 2.8332656e-08 -6.9667707e-09 
0.053754973 -0.080768541 -1.0051607e-08 4.32094e-08 
0.052758148 -0.07978216 -2.954822e-08 6.8734293e-08 
0.051773185 -0.078797725 -3.7943074e-08 7.9061063e-08 
0.050800246 -0.077815676 -4.0265383e-08 7.9919518e-08 
0.049839476 -0.076836432 -3.9236467e-08 7.4729463e-08 
0.048891002 -0.075860389 -3.6112104e-08 6.58196e-08 
0.047954934 -0.074887924 -3.1543076e-08 5.5118131e-08 
0.047031369 -0.073919394 -2.6134333e-08 4.429804e-08 
0.046120386 -0.072955136 -2.059866e-08 3.460945e-08 
0.04522205 -0.071995472 -1.5618443e-08 2.6698152e-08 
0.044336414 -0.071040703 -1.1632228e-08 2.0605416e-08 
0.043463515 -0.070091116 -8.7266505e-09 1.5969548e-08 
0.042603381 -0.069146981 -6.6951776e-09 1.2315841e-08 
0.041756026 -0.068208554 -5.2087373e-09 9.2889894e-09 
0.040921451 -0.067276073 -3.9907113e-09 6.7405063e-09 
0.040099649 -0.066349765 -2.9104408e-09 4.6769828e-09 
0.039290602 -0.065429842 -1.9730044e-09 3.1426936e-09 
0.038494282 -0.064516504 -1.2424732e-09 2.1218503e-09 
0.037710651 -0.063609937 -7.5982798e-10 1.5096523e-09 
0.036939663 -0.062710317 -5.0168308e-10 1.1492078e-09 
0.036181265 -0.061817807 -3.9051516e-10 8.9559836e-10 
0.035435394 -0.060932558 -3.3589864e-10 6.637058e-10 
0.034701981 -0.060054713 -2.749807e-10 4.3691052e-10 
0.033980951 -0.059184403 -1.8966649e-10 2.4136243e-10 
0.03327222 -0.058321749 -9.700437e-11 1.0815647e-10 
0.0325757 -0.057466863 -2.4955906e-11 4.64258e-11 
0.031891297 -0.056619849 9.573645e-12 3.827456e-11 
0.031218912 -0.055780801 9.4201037e-12 5.1681807e-11 
0.030558441 -0.054949805 -8.1866036e-12 5.8857952e-11 
0.029909774 -0.054126939 -2.3908791e-11 4.8103844e-11 
0.029272799 -0.053312273 -2.6663421e-11 2.4184438e-11 
0.0286474 -0.052505871 -1.678485e-11 4.4451273e-15 
0.028033456 -0.051707788 -2.1928679e-12 -1.3545397e-11 
0.027430842 -0.050918073 8.4037223e-12 -1.3554189e-11 
0.026839434 -0.05013677 1.071724e-11 -4.8068217e-12 
0.026259102 -0.049363914 6.1016157e-12 4.7994708e-12 
0.025689714 -0.048599537 -7.4130115e-13 9.3604818e-12 
0.025131137 -0.047843662 -5.2860782e-12 7.5865825e-12 
0.024583234 -0.04709631 -5.6220643e-12 2.1598392e-12 
0.024045869 -0.046357493 -2.7519835e-12 -2.914441e-12 
0.023518902 -0.045627222 8.1100668e-13 -4.9334376e-12 
0.023002194 -0.044905499 2.8838468e-12 -3.6481094e-12 
0.022495603 -0.044192326 2.7412307e-12 -7.1549888e-13 
0.021998988 -0.043487696 1.1043694e-12 1.7620244e-12 
0.021512205 -0.042791602 -6.7737245e-13 2.535453e-12 
0.021035111 -0.042104029 -1.5627901e-12 1.6640991e-12 
