% ./projectseries.x -T0 0 -T1 400 -bd UBbasis/ -Nb 4 -d data/uUB4 -ul uUB4 -o uUB4.asc 
% forcing dissipation energy
3.04368 3.04382 0.385809
3.04369 3.04379 0.385809
3.0437 3.04377 0.385808
3.0437 3.04375 0.385807
3.04369 3.04373 0.385806
3.04369 3.04371 0.385805
3.04368 3.0437 0.385803
3.04367 3.04368 0.385802
3.04365 3.04366 0.3858
3.04364 3.04363 0.385797
3.04362 3.04361 0.385795
3.0436 3.04357 0.385792
3.04358 3.04354 0.385789
3.04356 3.0435 0.385785
3.04353 3.04347 0.385782
3.04351 3.04342 0.385778
3.04348 3.04338 0.385773
3.04345 3.04333 0.385769
3.04342 3.04329 0.385764
3.04339 3.04324 0.38576
3.04337 3.04319 0.385755
3.04334 3.04314 0.385751
3.04331 3.0431 0.385746
3.04329 3.04305 0.385743
3.04326 3.04301 0.385739
3.04324 3.04297 0.385736
3.04322 3.04293 0.385734
3.04321 3.0429 0.385732
3.04319 3.04288 0.385731
3.04318 3.04286 0.385731
3.04318 3.04286 0.385732
3.04318 3.04285 0.385734
3.04318 3.04286 0.385736
3.04319 3.04288 0.38574
3.0432 3.0429 0.385745
3.04321 3.04293 0.385751
3.04323 3.04298 0.385758
3.04325 3.04303 0.385765
3.04328 3.04308 0.385774
3.0433 3.04315 0.385783
3.04333 3.04322 0.385794
3.04337 3.0433 0.385805
3.0434 3.04339 0.385816
3.04344 3.04348 0.385828
3.04348 3.04358 0.385841
3.04351 3.04368 0.385853
3.04355 3.04379 0.385865
3.04359 3.04389 0.385877
3.04363 3.04399 0.385889
3.04366 3.04409 0.3859
3.04369 3.04418 0.38591
3.04372 3.04426 0.385918
3.04374 3.04434 0.385925
3.04375 3.0444 0.385931
3.04376 3.04445 0.385935
3.04376 3.04449 0.385936
3.04375 3.04451 0.385935
3.04373 3.0445 0.385931
3.0437 3.04448 0.385924
3.04366 3.04444 0.385914
3.04361 3.04436 0.385901
3.04355 3.04427 0.385884
3.04347 3.04414 0.385864
3.04338 3.04399 0.38584
3.04328 3.0438 0.385812
3.04316 3.04359 0.385781
3.04303 3.04334 0.385746
3.04288 3.04307 0.385707
3.04272 3.04276 0.385665
3.04255 3.04243 0.385619
3.04237 3.04207 0.38557
3.04217 3.04168 0.385519
3.04197 3.04127 0.385465
3.04176 3.04084 0.385409
3.04154 3.0404 0.385352
3.04131 3.03993 0.385294
3.04108 3.03946 0.385235
3.04085 3.03899 0.385176
3.04062 3.03851 0.385119
3.0404 3.03804 0.385063
3.04018 3.03757 0.385009
3.03996 3.03713 0.384959
3.03976 3.0367 0.384913
3.03957 3.03631 0.384871
3.0394 3.03595 0.384836
3.03925 3.03563 0.384807
3.03912 3.03537 0.384785
3.03901 3.03515 0.384771
3.03892 3.035 0.384767
3.03887 3.03491 0.384772
3.03885 3.03489 0.384787
3.03885 3.03495 0.384812
3.0389 3.03509 0.384849
3.03897 3.03531 0.384897
3.03908 3.03562 0.384957
3.03923 3.03601 0.385028
3.03941 3.03649 0.385111
3.03963 3.03705 0.385205
3.03988 3.0377 0.385309
3.04016 3.03842 0.385424
3.04047 3.03922 0.385548
3.04081 3.04008 0.38568
3.04117 3.04101 0.385819
3.04155 3.04198 0.385965
3.04194 3.04299 0.386115
3.04234 3.04403 0.386268
3.04275 3.04509 0.386422
3.04315 3.04615 0.386575
3.04354 3.04719 0.386727
3.04392 3.04821 0.386873
3.04428 3.04919 0.387014
3.04461 3.05011 0.387146
3.0449 3.05095 0.387267
3.04514 3.05171 0.387375
3.04534 3.05236 0.387469
3.04548 3.05289 0.387546
3.04555 3.05329 0.387605
3.04555 3.05355 0.387643
3.04547 3.05364 0.387658
3.04531 3.05356 0.38765
3.04506 3.0533 0.387616
3.04472 3.05285 0.387554
3.04428 3.05219 0.387465
3.04374 3.05133 0.387346
3.04309 3.05025 0.387197
3.04234 3.04896 0.387017
3.04149 3.04744 0.386805
3.04053 3.0457 0.386561
3.03947 3.04373 0.386285
3.03831 3.04154 0.385977
3.03705 3.03912 0.385638
3.0357 3.03649 0.385269
3.03426 3.03364 0.38487
3.03274 3.03059 0.384444
3.03115 3.02735 0.383991
3.0295 3.02392 0.383515
3.02779 3.02034 0.383019
3.02605 3.0166 0.382505
3.02428 3.01275 0.381979
3.0225 3.00881 0.381444
3.02072 3.0048 0.380907
3.01897 3.00078 0.380372
3.01725 2.99677 0.379848
3.0156 2.99284 0.37934
3.01402 2.98903 0.378857
3.01254 2.98541 0.378408
3.01119 2.98203 0.378001
3.00998 2.97896 0.377645
3.00893 2.97628 0.377349
3.00807 2.97405 0.377122
3.00741 2.97234 0.376973
3.00698 2.97123 0.37691
3.00678 2.97076 0.376939
3.00682 2.971 0.377067
3.00713 2.97199 0.377297
3.0077 2.97375 0.377633
3.00853 2.97632 0.378074
3.00963 2.97969 0.378618
3.01098 2.98383 0.379263
3.01257 2.98872 0.380001
3.01439 2.99431 0.380825
3.01642 3.0005 0.381724
3.01862 3.00723 0.382687
3.02099 3.01437 0.383699
3.02347 3.0218 0.384746
3.02604 3.02941 0.385814
3.02865 3.03705 0.386885
3.03128 3.04458 0.387946
3.03387 3.05187 0.388981
3.03637 3.05879 0.389975
3.03875 3.06522 0.390915
3.04096 3.07104 0.391788
3.04293 3.07615 0.392585
3.04464 3.08048 0.393295
3.04603 3.08394 0.393911
3.04706 3.08649 0.394424
3.04768 3.08808 0.394831
3.04786 3.0887 0.395127
3.04757 3.08832 0.395308
3.04678 3.08695 0.395373
3.04547 3.0846 0.39532
3.04361 3.08129 0.395149
3.0412 3.07705 0.394859
3.03823 3.07191 0.39445
3.0347 3.06592 0.393922
3.03061 3.05911 0.393275
3.02597 3.05152 0.392508
3.02078 3.04319 0.391621
3.01507 3.03415 0.39061
3.00884 3.02443 0.389474
3.00211 3.01401 0.388209
2.9949 3.00291 0.386809
2.98724 2.99108 0.385269
2.97913 2.97848 0.383582
2.97062 2.96504 0.381741
2.96172 2.95065 0.379738
2.95246 2.9352 0.377566
2.94288 2.91857 0.37522
2.93299 2.90062 0.372697
2.92285 2.88125 0.369997
2.91248 2.86035 0.367128
2.90193 2.8379 0.364101
2.89125 2.81393 0.360939
2.8805 2.78858 0.357674
2.86976 2.7621 0.354349
2.85913 2.73485 0.351021
2.84875 2.70734 0.347761
2.83876 2.68018 0.344655
2.82938 2.6541 0.3418
2.82082 2.62991 0.339309
2.81332 2.60845 0.337298
2.80713 2.59057 0.335888
2.80248 2.5771 0.335193
2.79952 2.56872 0.335309
2.79832 2.566 0.336301
2.79885 2.56933 0.338197
2.801 2.57892 0.340974
2.80464 2.5948 0.344561
2.80965 2.61682 0.348841
2.816 2.64463 0.353667
2.82375 2.67759 0.358873
2.833 2.71479 0.364293
2.84385 2.75503 0.369773
2.85626 2.79692 0.375182
2.8701 2.83901 0.380409
2.88506 2.87993 0.385373
2.90067 2.91856 0.390012
2.91643 2.95403 0.394285
2.93176 2.98576 0.398165
2.94615 3.01344 0.401636
2.95915 3.03692 0.404692
2.9704 3.0562 0.407329
2.97966 3.07138 0.409553
2.98676 3.08261 0.411371
2.99162 3.09007 0.412792
2.99421 3.09396 0.413829
2.99455 3.09451 0.414494
2.99269 3.09195 0.414801
2.98872 3.08652 0.414763
2.98277 3.07849 0.414391
2.97501 3.06815 0.413698
2.96564 3.05583 0.412693
2.95486 3.04194 0.411389
2.94292 3.02693 0.409796
2.93004 3.01134 0.407927
2.91644 2.99577 0.405794
2.90233 2.98089 0.403404
2.88786 2.96738 0.400756
2.8732 2.9559 0.397832
2.85845 2.94697 0.394583
2.84373 2.9409 0.390916
2.82912 2.93754 0.386677
2.8147 2.93595 0.381642
2.80053 2.93386 0.375531
2.78672 2.92715 0.368065
2.77347 2.91043 0.359081
2.76115 2.879 0.348673
2.75027 2.83134 0.33729
2.74134 2.77021 0.325707
2.73467 2.70081 0.314816
2.73033 2.62722 0.305339
2.72814 2.55136 0.29767
2.72771 2.47874 0.291903
2.72857 2.41988 0.287941
2.73017 2.37968 0.285586
2.7318 2.35604 0.284599
2.73234 2.34572 0.284684
2.73011 2.34545 0.285474
2.72319 2.35174 0.286563
2.70994 2.36262 0.287581
2.68953 2.37742 0.288297
2.66225 2.38961 0.288747
2.62929 2.38967 0.289253
2.59241 2.37491 0.290245
2.55353 2.35203 0.292024
2.5145 2.33105 0.294649
2.47686 2.31907 0.297983
2.44173 2.31903 0.301799
2.40965 2.33134 0.305851
2.38066 2.35535 0.309876
2.35466 2.39 0.313587
2.33169 2.43295 0.316688
2.3122 2.47846 0.31896
2.29735 2.51833 0.320345
2.2894 2.5481 0.320957
2.2919 2.571 0.320968
2.30895 2.59542 0.320453
2.34362 2.62755 0.31934
2.39659 2.66499 0.317507
2.4647 2.69846 0.314919
2.54063 2.71851 0.311634
2.61604 2.72045 0.307735
2.68418 2.70868 0.303346
2.74122 2.69491 0.298696
2.78776 2.68603 0.294051
2.82871 2.68554 0.289616
2.87 2.69348 0.285568
2.9137 2.70352 0.282137
2.95535 2.70699 0.279586
2.9857 2.69734 0.278126
2.99477 2.67058 0.277817
2.97605 2.62536 0.27848
2.92944 2.56523 0.279679
2.86135 2.49936 0.280819
2.78167 2.43878 0.281377
2.69948 2.39421 0.28104
2.6204 2.38151 0.279557
2.54661 2.38559 0.276625
2.47785 2.35119 0.272363
2.41248 2.27522 0.267312
2.34925 2.19242 0.26184
2.28867 2.12557 0.256001
2.23232 2.07042 0.249832
2.18132 2.01591 0.243574
2.13616 1.95819 0.237585
2.09713 1.89832 0.232179
2.06432 1.84208 0.227549
2.03716 1.79696 0.223682
2.01419 1.76553 0.220358
1.99382 1.7443 0.21738
1.97513 1.72898 0.214716
1.95784 1.71582 0.212409
1.94167 1.70251 0.210487
1.92605 1.68936 0.208937
1.91025 1.67786 0.207723
1.89362 1.66907 0.206796
1.8758 1.6634 0.206114
1.85678 1.66081 0.205672
1.83696 1.66068 0.205516
1.81728 1.66221 0.205746
1.79938 1.66547 0.206503
1.78554 1.67156 0.207942
1.77838 1.68109 0.210188
1.78013 1.69335 0.213286
1.79164 1.7083 0.217157
1.81166 1.7283 0.22156
1.83734 1.75544 0.226159
1.86562 1.78719 0.230675
1.8945 1.8175 0.235024
1.92322 1.84218 0.239309
1.95179 1.86059 0.243731
1.98039 1.8728 0.248475
2.00898 1.87929 0.253639
2.03703 1.88331 0.259179
2.06358 1.89022 0.264933
2.08763 1.90317 0.270708
2.10852 1.92119 0.276359
2.12611 1.94108 0.281816
2.14056 1.95953 0.287064
2.15214 1.97465 0.292105
2.1611 1.987 0.296933
2.16769 1.99883 0.301524
2.17216 2.01196 0.305846
2.17479 2.0265 0.309879
2.17588 2.04131 0.31362
2.1757 2.05493 0.317081
2.17446 2.06653 0.320274
2.17233 2.07616 0.323207
2.16941 2.08453 0.325871
2.16581 2.09237 0.328256
2.1616 2.09995 0.330348
2.15686 2.10703 0.332142
2.15168 2.1131 0.333642
2.14612 2.11769 0.334859
2.14026 2.1206 0.335806
2.13413 2.12183 0.336499
2.12779 2.12155 0.33695
2.12123 2.11998 0.337168
2.11448 2.11729 0.337161
2.10754 2.1136 0.336938
2.10039 2.10898 0.336508
2.09305 2.10349 0.335878
2.0855 2.09718 0.33506
2.07776 2.09013 0.334067
2.06982 2.08245 0.332911
2.06168 2.07427 0.331607
2.05335 2.06577 0.330173
2.04482 2.05716 0.328626
2.03611 2.04871 0.326987
2.0272 2.04072 0.325278
2.01812 2.03356 0.323525
2.00887 2.02769 0.321754
1.99947 2.02362 0.319999
1.98996 2.022 0.318292
1.98037 2.02356 0.316672
1.97075 2.0292 0.315178
1.9612 2.03992 0.313848
1.95184 2.05683 0.312713
1.94287 2.0811 0.311794
1.93462 2.11386 0.311091
1.92758 2.15601 0.310567
1.92245 2.20804 0.310138
1.92023 2.26965 0.309648
1.92217 2.33941 0.308861
1.92963 2.41415 0.30744
1.94379 2.48813 0.304964
1.9652 2.55192 0.300973
1.9935 2.59239 0.295094
2.02747 2.59592 0.287225
2.0654 2.55573 0.277688
2.10541 2.47849 0.267222
