% ./projectseries.x -T0 0 -T1 400 -bd UBbasis/ -Nb 4 -d data/uUB6 -ul uUB6 -o uUB6.asc 
0.33815007 0.16820234 0.063434846 0.046493584 
0.33813541 0.16818849 0.063425147 0.046466471 
0.33812075 0.16817768 0.063416968 0.046460484 
0.33810587 0.16816988 0.063407325 0.046467711 
0.33809076 0.16816465 0.063396827 0.046476002 
0.33807493 0.16816134 0.063387711 0.046476347 
0.33805778 0.16815947 0.063381204 0.046464415 
0.33803904 0.16815903 0.06337634 0.046441761 
0.33801877 0.16816035 0.063371036 0.0464165 
0.3379972 0.1681636 0.063364554 0.046400351 
0.33797462 0.16816824 0.063359223 0.046402309 
0.33795128 0.16817317 0.063359801 0.046422782 
0.3379273 0.16817738 0.063370564 0.046452077 
0.3379026 0.16818097 0.063391879 0.046474433 
0.33787696 0.16818553 0.063418416 0.04647557 
0.33785027 0.16819392 0.063440325 0.046449836 
0.33782281 0.16820914 0.063447134 0.046403344 
0.3377954 0.16823306 0.063432679 0.046351558 
0.33776936 0.16826528 0.063398626 0.046312567 
0.33774608 0.16830309 0.063354673 0.046299267 
0.33772661 0.16834231 0.063314951 0.046313958 
0.33771126 0.16837904 0.063292015 0.046347457 
0.33769978 0.16841138 0.063291126 0.04638291 
0.33769174 0.16844039 0.063307589 0.046402838 
0.33768706 0.16846977 0.063328657 0.046396793 
0.33768638 0.16850416 0.06333936 0.046366419 
0.33769098 0.16854685 0.063329652 0.046325314 
0.33770237 0.16859796 0.063299545 0.046293293 
0.33772169 0.16865388 0.063259708 0.046287545 
0.33774914 0.16870838 0.063227089 0.046314831 
0.33778362 0.16875488 0.063217402 0.046368298 
0.33782296 0.16878899 0.06323788 0.046430255 
0.33786457 0.16881012 0.063283698 0.046479877 
0.33790629 0.16882143 0.06333992 0.046502895 
0.33794689 0.16882795 0.063388309 0.04649911 
0.33798618 0.1688338 0.063415995 0.046483751 
0.3380246 0.16883971 0.063421986 0.046481204 
0.33806246 0.16884213 0.063418348 0.046513627 
0.33809918 0.16883434 0.063425236 0.046589983 
0.33813287 0.16880921 0.063461734 0.046700795 
0.33816044 0.16876239 0.06353658 0.046821084 
0.33817837 0.16869448 0.06364317 0.046920552 
0.33818371 0.16861119 0.063761524 0.046977216 
0.33817482 0.16852101 0.063866744 0.046988652 
0.33815151 0.16843165 0.063940331 0.04697475 
0.3381147 0.16834666 0.06397912 0.046969233 
0.33806564 0.16826405 0.063997471 0.047003363 
0.33800504 0.16817743 0.06402123 0.047090022 
0.33793243 0.1680794 0.064075747 0.047216054 
0.33784609 0.16796582 0.064173209 0.047346317 
0.33774388 0.1678389 0.06430538 0.047438042 
0.33762435 0.16770759 0.064445715 0.047460267 
0.33748751 0.16758485 0.064560548 0.047410031 
0.3373351 0.16748277 0.064624433 0.047316134 
0.33717034 0.16740807 0.064632406 0.047226263 
0.3369972 0.16735987 0.064603047 0.047183172 
0.33681942 0.16733111 0.06457023 0.047202681 
0.33663951 0.16731282 0.064566757 0.04726466 
0.33645848 0.16729964 0.064607307 0.047320626 
0.33627658 0.16729395 0.064679174 0.04731482 
0.33609461 0.16730632 0.064746143 0.047210973 
0.33591488 0.16735177 0.064764514 0.047012905 
0.33574165 0.16744349 0.064703976 0.046766244 
0.33558099 0.16758709 0.064563286 0.046537282 
0.33543993 0.16777828 0.064372879 0.046379829 
0.33532484 0.16800493 0.064182305 0.046308742 
0.33523974 0.16825287 0.064037502 0.046292851 
0.33518574 0.16851287 0.063958341 0.046268557 
0.33516229 0.16878535 0.063927596 0.04616808 
0.33516921 0.16908026 0.063897744 0.045952561 
0.33520823 0.16941144 0.063813222 0.04563543 
0.33528351 0.1697885 0.063637789 0.045280817 
0.33540104 0.17021009 0.063373974 0.044974112 
0.33556694 0.17066211 0.063065122 0.044780853 
0.33578459 0.17112171 0.062778026 0.044716977 
0.33605211 0.1715656 0.062573185 0.044743032 
0.33636235 0.1719792 0.062476171 0.044781051 
0.33670586 0.17236219 0.06246408 0.044746952 
0.33707491 0.17272702 0.062474711 0.044589384 
0.33746604 0.17309038 0.06243524 0.044319883 
0.33788017 0.17346182 0.062297212 0.044015002 
0.33832078 0.17383549 0.062061606 0.043783211 
0.33879066 0.17418908 0.061782186 0.043713651 
0.33928777 0.17449056 0.061544677 0.043835798 
0.33980208 0.17470989 0.061430392 0.044108183 
0.3403161 0.17483093 0.061480519 0.044435642 
0.34080997 0.17485825 0.06167713 0.044705883 
0.34126828 0.17481497 0.061950252 0.044836562 
0.34168399 0.1747313 0.062209081 0.044819542 
0.34205778 0.17462922 0.062383432 0.044737344 
0.34239449 0.17451098 0.062456361 0.044730586 
0.34269892 0.17435672 0.062473228 0.044927601 
0.34297117 0.17413188 0.062522394 0.045378687 
0.34320258 0.17380086 0.062695387 0.046031696 
0.34337527 0.17334185 0.063044115 0.046753079 
0.34346755 0.17275727 0.063554005 0.047377529 
0.3434622 0.17207527 0.064146473 0.047773605 
0.34335094 0.17133955 0.06471252 0.047913521 
0.34313291 0.17059165 0.065162467 0.047909414 
0.34281155 0.16985424 0.065468319 0.0479687 
0.342393 0.16912255 0.065679409 0.048278172 
0.34188363 0.16836795 0.065900716 0.048894641 
0.3412854 0.1675525 0.066239656 0.049709434 
0.34059342 0.16664928 0.066746183 0.050489523 
0.33979932 0.16566044 0.067378017 0.050969044 
0.33889556 0.16462323 0.068014499 0.050978241 
0.33787466 0.16359862 0.068515562 0.050567661 
0.33672892 0.16264815 0.068792449 0.050015783 
0.33545809 0.16181114 0.068854041 0.049661545 
0.33407787 0.16109391 0.068803434 0.049681753 
0.33261718 0.16047805 0.068777207 0.049982564 
0.33110761 0.15994381 0.068855385 0.050244278 
0.32957662 0.15949593 0.068996062 0.050067829 
0.3280445 0.1591748 0.069043993 0.04918839 
0.32652011 0.1590431 0.068816108 0.047679213 
0.32500483 0.15915881 0.068205896 0.04595836 
0.32351235 0.15955551 0.067242083 0.04452631 
0.32208501 0.16024066 0.066074785 0.043652215 
0.32078684 0.16120657 0.06490239 0.043248481 
0.31968208 0.16244296 0.063875751 0.042948816 
0.31882042 0.1639464 0.063020389 0.042290979 
0.31823413 0.16572106 0.062219973 0.04094748 
0.31793891 0.16776564 0.061279224 0.03893064 
0.31794076 0.17005595 0.060028455 0.036611119 
0.31825189 0.17253842 0.058411817 0.034495661 
0.31889843 0.17513786 0.056525234 0.032956172 
0.31990469 0.1777712 0.054594698 0.03211178 
0.3212657 0.18036155 0.052895707 0.031856099 
0.32293562 0.18285422 0.051634178 0.031923843 
0.32484364 0.18523122 0.050848682 0.031977205 
0.32692142 0.18750925 0.050398626 0.031747218 
0.32912125 0.18971069 0.050047106 0.03118387 
0.33142005 0.1918206 0.049586462 0.030498668 
0.33381602 0.19375977 0.048942293 0.030049871 
0.33631932 0.19539852 0.048206393 0.030143509 
0.33893304 0.19661008 0.047579075 0.030874135 
0.34162497 0.19732881 0.047265131 0.032102325 
0.34430521 0.19757493 0.047399735 0.033582857 
0.34683463 0.19743987 0.048031116 0.035137718 
0.34907399 0.19704831 0.04913229 0.03672645 
0.35094666 0.19650729 0.050620869 0.038394532 
0.35246899 0.19585477 0.052387469 0.040219514 
0.35372759 0.19503725 0.054324113 0.042312281 
0.3548249 0.19393644 0.056340387 0.044791857 
0.35582772 0.1924254 0.05837542 0.047690178 
0.35673683 0.19041403 0.060411722 0.050883547 
0.35748243 0.1878611 0.062478716 0.054134013 
0.35794849 0.18475782 0.06463705 0.057179871 
0.35801695 0.18110653 0.066942266 0.059793365 
0.35760364 0.17691783 0.069389047 0.061843094 
0.35665905 0.17222109 0.071867054 0.063400239 
0.35513934 0.16705318 0.074194605 0.064749905 
0.35298468 0.16141672 0.076240091 0.066126278 
0.35013234 0.15526301 0.07802022 0.067303462 
0.34655416 0.14855407 0.079654764 0.067472876 
0.34227129 0.14137194 0.081172446 0.065720534 
0.33727207 0.13393992 0.082328192 0.06195202 
0.33139439 0.12646431 0.082705563 0.057211142 
0.32443368 0.11898675 0.082094295 0.052327428 
0.31642749 0.11150776 0.080580635 0.046529819 
0.30773106 0.10427697 0.078098051 0.038289088 
0.29880259 0.097878039 0.074144567 0.027303145 
0.28997371 0.092968074 0.068223429 0.015142928 
0.28146459 0.089973693 0.06047367 0.0037803455 
0.27347721 0.089029114 0.051594122 -0.005784549 
0.26615616 0.090055792 0.042156439 -0.013287527 
0.25955488 0.092835315 0.032243587 -0.018639255 
0.25369358 0.097082242 0.021762898 -0.021864156 
0.24861575 0.10247094 0.010914002 -0.023167917 
0.24437611 0.10859261 0.00036449494 -0.022809906 
0.24098629 0.11493337 -0.0088804517 -0.020885696 
0.23838711 0.12094102 -0.01578076 -0.017289151 
0.23647623 0.12615178 -0.019580487 -0.011945614 
0.235154 0.13029765 -0.01995109 -0.0050996751 
0.23435173 0.13333864 -0.016932492 0.0025747322 
0.23404801 0.13542108 -0.010882217 0.010059385 
0.23427972 0.13680999 -0.0025714915 0.016195085 
0.23511921 0.13781819 0.0067716674 0.020049366 
0.23660671 0.13871362 0.015697997 0.021377379 
0.23869171 0.13962802 0.022929446 0.020778431 
0.24123448 0.14051069 0.027635171 0.019337635 
0.24406174 0.14112748 0.029444939 0.018030019 
0.24703091 0.1410833 0.028318094 0.017345926 
0.25003937 0.13987773 0.024546708 0.017401143 
0.25295705 0.13702986 0.018952478 0.018330074 
0.25557774 0.13231352 0.012932614 0.020481252 
0.25771342 0.12608019 0.0080637037 0.024084695 
0.25936405 0.11935369 0.0056131321 0.028579716 
0.26071398 0.11332751 0.0063661704 0.032451478 
0.26190687 0.10868416 0.010517575 0.034220254 
0.26286657 0.10545876 0.017524521 0.033759401 
0.26339775 0.10331187 0.026136429 0.031998493 
0.26341251 0.10175066 0.034501706 0.029274217 
0.262961 0.1002625 0.040258503 0.024710284 
0.26210842 0.09846318 0.041233518 0.017237784 
0.26088972 0.096303702 0.037050854 0.0071965411 
0.25933645 0.094255417 0.029841398 -0.003087044 
0.25743331 0.093174184 0.022060301 -0.010919194 
0.25516194 0.093777146 0.014186788 -0.014878386 
0.25268589 0.096342103 0.0057550121 -0.014637617 
0.25026819 0.10073794 -0.0029692898 -0.010749251 
0.24814919 0.10647875 -0.011018744 -0.0044157845 
0.2465654 0.11285513 -0.017009122 0.0031606182 
0.24571365 0.11925172 -0.019355115 0.011048186 
0.24568375 0.12551357 -0.01696616 0.018413802 
0.24646219 0.13201317 -0.010120851 0.024326352 
0.24805035 0.13918599 -0.00049863951 0.027591005 
0.25049217 0.14711465 0.0097776684 0.027190426 
0.25380433 0.15562749 0.019024887 0.023184788 
0.25788882 0.16443936 0.025877878 0.016425827 
0.26250769 0.17315302 0.02902471 0.0077891771 
0.26739872 0.18137758 0.027615312 -0.0019847509 
0.27247481 0.18888026 0.021763285 -0.011973345 
0.27786622 0.19551715 0.012402633 -0.020961966 
0.28377854 0.20113747 0.00080279808 -0.027731761 
0.29028919 0.20559551 -0.011745825 -0.031758057 
0.29722779 0.20880614 -0.024040584 -0.033576557 
0.30425701 0.21080327 -0.035056645 -0.034140548 
0.31104523 0.21176478 -0.044007282 -0.03396484 
0.31737594 0.21197301 -0.050343215 -0.033013205 
0.32318777 0.21170119 -0.053769945 -0.031273923 
0.32858296 0.21109732 -0.054294231 -0.029267207 
0.33377836 0.21011257 -0.052327179 -0.028007051 
0.33898192 0.2085195 -0.048761762 -0.028513248 
0.34426335 0.20604827 -0.044815085 -0.031256471 
0.34950871 0.20252841 -0.041677976 -0.035978631 
0.35448329 0.19790697 -0.0402644 -0.041915613 
0.35893919 0.19215823 -0.04118156 -0.048031731 
0.36267203 0.18520253 -0.044713191 -0.053198378 
0.36548848 0.17690629 -0.050594646 -0.0565591 
0.36712349 0.16707784 -0.057768898 -0.057868725 
0.36719812 0.15542048 -0.064535162 -0.057194263 
0.36530394 0.14166107 -0.068997773 -0.053805486 
0.36113999 0.12595324 -0.069484172 -0.046018625 
0.35458678 0.10910741 -0.065464037 -0.034513403 
0.34591281 0.092104639 -0.059039502 -0.023947293 
0.33597762 0.075555614 -0.054131261 -0.016845847 
0.32588361 0.060078103 -0.052536394 -0.010849783 
0.31630784 0.046747369 -0.051581965 -0.0044437685 
0.30737383 0.036510244 -0.048061093 0.0013844974 
0.29906572 0.029594188 -0.042192394 0.0063068807 
0.29142979 0.02579905 -0.035711919 0.0106028 
0.28450824 0.024685256 -0.029624367 0.013752485 
0.27831506 0.025572884 -0.024089566 0.01496161 
0.27284068 0.027702648 -0.018919464 0.014098286 
0.26803996 0.030392747 -0.014028612 0.011634425 
0.26384165 0.033096412 -0.0095831766 0.0081592647 
0.26016194 0.03541224 -0.0058683671 0.0042359142 
0.25690184 0.037131413 -0.0030942405 0.00044326649 
0.25396285 0.038327149 -0.0013577331 -0.0026823792 
0.25128767 0.039366361 -0.00071660951 -0.0048456381 
0.24886996 0.040737366 -0.001135529 -0.0061916374 
0.24672065 0.042769684 -0.0023869975 -0.0071610521 
0.24481177 0.04545135 -0.0040475299 -0.0079825372 
0.24303755 0.048438192 -0.0055546483 -0.0082567096 
0.2412313 0.051209706 -0.0063590403 -0.0071091343 
0.23922841 0.053298054 -0.0061619468 -0.0039449397 
0.23693576 0.05446553 -0.0049430009 0.00099935879 
0.23435395 0.054679394 -0.0026800156 0.0069931304 
0.2315305 0.053965205 0.00080469221 0.013364435 
0.22850708 0.052346393 0.0056536825 0.019599755 
0.22532421 0.049902094 0.011686341 0.025242963 
0.22205621 0.046828464 0.018239957 0.029854461 
0.21880955 0.043400189 0.024260769 0.032988952 
0.21567105 0.039859604 0.028638009 0.034183791 
0.21267314 0.036369913 0.030609012 0.033052018 
0.20982238 0.03306819 0.030025173 0.029507408 
0.20713908 0.030105991 0.027318709 0.023948599 
0.20465696 0.027626977 0.023211518 0.017172819 
0.20239433 0.025725081 0.018424433 0.010074616 
0.2003278 0.024424321 0.013552446 0.003388981 
0.19838795 0.023682416 0.0090724149 -0.0023910454 
0.1964754 0.023398446 0.0053719161 -0.0069448254 
0.19448575 0.023421219 0.0027181755 -0.010007968 
0.19233505 0.023576256 0.0011848449 -0.011349785 
0.18997945 0.023712705 0.00061969095 -0.010881626 
0.18742329 0.0237426 0.00070085697 -0.0087792796 
0.18471219 0.023649751 0.0010535535 -0.0054829818 
0.18191374 0.023472447 0.0013595174 -0.0015637447 
0.17909602 0.023275805 0.001415653 0.0024326927 
0.17631429 0.023121519 0.0011482159 0.0060648943 
0.17360626 0.023042662 0.00059700399 0.0090056766 
0.17098954 0.023037447 -0.00012783735 0.011055689 
0.16846099 0.023082653 -0.0008977884 0.012169345 
0.16600089 0.023152436 -0.0016074165 0.012439106 
0.16357962 0.023227033 -0.002188815 0.012027118 
0.16116412 0.023292847 -0.0026065483 0.01109013 
0.15872407 0.023340792 -0.0028470151 0.0097425187 
0.15623725 0.023363831 -0.002907994 0.0080608877 
0.15369224 0.023354132 -0.0027932021 0.006109893 
0.15108762 0.023301215 -0.0025127057 0.0039682432 
0.14842847 0.023191674 -0.0020869703 0.0017432196 
0.14572239 0.02301061 -0.0015500383 -0.00042962699 
0.14297695 0.022744702 -0.00094725644 -0.0024002615 
0.14019895 0.022385925 -0.00032701937 -0.0040270029 
0.13739491 0.021934353 0.00026983041 -0.0052015502 
0.13457157 0.021398923 0.00081772068 -0.0058687264 
0.13173601 0.020796089 0.0013072074 -0.0060357208 
0.12889559 0.020147003 0.0017384931 -0.0057693277 
0.12605794 0.01947413 0.0021110543 -0.0051827106 
0.12323075 0.01879817 0.0024148366 -0.0044148726 
0.1204214 0.018136007 0.0026275272 -0.0036068688 
0.1176366 0.017499876 0.0027193453 -0.0028792189 
0.11488206 0.016897469 0.0026633445 -0.0023147466 
0.11216253 0.016332461 0.0024469626 -0.001949915 
0.10948187 0.01580516 0.0020802577 -0.0017757562 
0.10684317 0.015313232 0.0015978017 -0.0017472128 
0.10424878 0.014852556 0.0010536766 -0.0017978864 
0.10170037 0.014418172 0.00051132307 -0.0018564438 
0.099199007 0.014005145 3.1334078e-05 -0.0018613239 
0.096745381 0.01360921 -0.00033951923 -0.0017714081 
0.094340049 0.01322711 -0.00057547225 -0.0015714473 
0.091983621 0.012856649 -0.0006739079 -0.001272026 
0.089676811 0.01249654 -0.00065263991 -0.00090471423 
0.087420344 0.012146136 -0.00054367819 -0.00051379487 
0.085214809 0.011805171 -0.00038539024 -0.00014646121 
0.083060527 0.011473574 -0.00021493411 0.00015648961 
0.08095751 0.011151355 -6.2374931e-05 0.0003677065 
0.078905487 0.010838564 5.274382e-05 0.00047691428 
0.07690397 0.010535256 0.00012223645 0.00049075999 
0.074952328 0.010241458 0.00014789988 0.00042934787 
0.073049822 0.0099571303 0.00013865201 0.00032061121 
0.071195627 0.0096821401 0.00010704704 0.00019401442 
0.069388846 0.0094162655 6.5974746e-05 7.5024242e-05 
0.06762852 0.0091592183 2.6144392e-05 -1.8608486e-05 
0.065913647 0.0089106803 -5.3339657e-06 -7.8302845e-05 
0.064243202 0.0086703331 -2.525655e-05 -0.00010397995 
0.062616149 0.0084378731 -3.3748662e-05 -0.00010186513 
0.06103145 0.0082130136 -3.316931e-05 -8.1569639e-05 
0.059488071 0.0079954803 -2.6884943e-05 -5.3240109e-05 
0.057984984 0.007785008 -1.8222529e-05 -2.5363484e-05 
0.056521166 0.0075813402 -9.780055e-06 -3.5261295e-06 
0.055095606 0.0073842296 -3.1339482e-06 9.8599258e-06 
0.05370731 0.0071934389 1.1237784e-06 1.5067619e-05 
0.052355297 0.0070087399 3.1419563e-06 1.4121863e-05 
0.051038604 0.0068299114 3.4902638e-06 9.7565886e-06 
0.049756288 0.0066567391 2.8648772e-06 4.5308252e-06 
0.048507424 0.0064890148 1.8786848e-06 2.6358026e-07 
0.047291108 0.0063265368 9.5321072e-07 -2.170914e-06 
0.046106455 0.0061691097 2.9895998e-07 -2.7440222e-06 
0.044952604 0.006016545 -4.5072698e-08 -1.9854976e-06 
0.043828713 0.0058686603 -1.4518813e-07 -6.3964627e-07 
0.042733964 0.0057252798 -1.0696855e-07 6.2589253e-07 
0.041667557 0.0055862338 -2.6445962e-08 1.3947283e-06 
0.040628717 0.005451359 3.5147561e-08 1.5462852e-06 
0.039616688 0.0053204984 5.5251604e-08 1.1976775e-06 
0.038630735 0.0051935009 3.9838853e-08 5.9188734e-07 
0.037670143 0.0050702214 8.0515404e-09 -1.7521318e-08 
0.036734221 0.0049505206 -2.1226807e-08 -4.4901139e-07 
0.035822293 0.0048342649 -3.7001672e-08 -6.2778553e-07 
0.034933704 0.0047213261 -3.7573326e-08 -5.76753e-07 
0.034067821 0.0046115815 -2.7682297e-08 -3.8013046e-07 
0.033224026 0.0045049135 -1.4199221e-08 -1.3943705e-07 
0.032401719 0.0044012095 -2.6516199e-09 6.219392e-08 
0.03160032 0.0043003617 4.3364444e-09 1.7905948e-07 
0.030819265 0.0042022669 6.8146053e-09 2.0472614e-07 
0.030058006 0.0041068265 6.3073322e-09 1.6154471e-07 
0.029316012 0.0040139461 4.551241e-09 8.4902464e-08 
0.028592767 0.0039235355 2.7325376e-09 8.5961251e-09 
0.02788777 0.0038355082 1.3313964e-09 -4.467401e-08 
0.027200536 0.0037497819 3.5831854e-10 -6.6491482e-08 
0.026530593 0.0036662775 -3.2158182e-10 -6.0647523e-08 
0.025877482 0.0035849196 -7.8552545e-10 -3.8077609e-08 
0.025240761 0.0035056359 -1.0210348e-09 -1.125653e-08 
0.024619996 0.0034283574 -9.971288e-10 1.0100341e-08 
0.024014769 0.0033530181 -7.3981556e-10 2.11385e-08 
0.023424673 0.0032795548 -3.508879e-10 2.1808905e-08 
0.022849313 0.003207907 3.1698751e-11 1.5338752e-08 
0.022288305 0.0031380167 2.9462871e-10 6.1586826e-09 
0.021741275 0.0030698287 3.9056359e-10 -1.894052e-09 
0.021207862 0.0030032898 3.412981e-10 -6.6112208e-09 
0.020687713 0.0029383491 2.1021953e-10 -7.5932849e-09 
0.020180486 0.002874958 6.5668347e-11 -5.7843811e-09 
0.019685849 0.0028130698 -4.5217662e-11 -2.719662e-09 
0.019203479 0.0027526395 -1.0432573e-10 1.7451173e-10 
0.01873306 0.0026936244 -1.1594923e-10 2.0125904e-09 
0.018274288 0.0026359832 -9.4980247e-11 2.5581727e-09 
0.017826866 0.0025796762 -5.7570807e-11 2.0802556e-09 
0.017390504 0.0025246655 -1.6931107e-11 1.0906093e-09 
0.016964921 0.0024709145 1.7252128e-11 9.0940396e-11 
0.016549844 0.0024183882 3.8531336e-11 -5.8881122e-10 
0.016145007 0.0023670526 4.4055342e-11 -8.3877389e-10 
0.015750151 0.0023168754 3.5219539e-11 -7.2787471e-10 
0.015365025 0.0022678253 1.7408582e-11 -4.1843435e-10 
0.014989383 0.0022198721 -1.8294211e-12 -8.0480469e-11 
0.014622986 0.0021729869 -1.5635555e-11 1.6610814e-10 
0.014265604 0.0021271415 -2.035524e-11 2.7280923e-10 
0.013917008 0.0020823091 -1.6480941e-11 2.5325263e-10 
0.013576981 0.0020384637 -7.6921437e-12 1.5731338e-10 
0.013245306 0.00199558 1.3153599e-12 4.258531e-11 
0.012921776 0.0019536339 7.0035941e-12 -4.684097e-11 
0.012606187 0.0019126018 8.1685928e-12 -9.00923e-11 
0.012298342 0.0018724611 5.8029339e-12 -8.8516765e-11 
0.011998048 0.0018331899 2.0316259e-12 -5.7835919e-11 
0.011705117 0.001794767 -1.1441685e-12 -1.8190883e-11 
0.011419366 0.0017571719 -2.6644899e-12 1.4019104e-11 
0.011140617 0.0017203846 -2.5453949e-12 3.0403652e-11 
0.010868696 0.0016843859 -1.4858766e-12 3.0772757e-11 
0.010603435 0.0016491572 -3.0560548e-13 2.0480629e-11 
0.010344668 0.0016146803 4.6417863e-13 6.7340656e-12 
0.010092236 0.0015809377 6.9883345e-13 -4.5269835e-12 
